ply
            format ascii 1.0
            element vertex 594
            property float x
            property float y
            property float z
            property uchar blue
            property uchar green
            property uchar red
            end_header
            0.000000 0.000000 0.000000 0 0 0
-1261.440849 221.759462 2607.446480 175 177 186
-1184.915161 502.650118 2455.464363 26 31 31
-1309.302139 376.464510 2771.242332 21 27 28
-1151.504421 529.250765 2438.062096 24 27 29
-1120.851040 528.431368 2438.993073 21 27 27
-1120.816326 528.425646 2440.502167 21 27 27
-1189.606571 -97.745454 2587.290001 92 63 62
-1255.295467 448.756981 2810.193253 80 95 100
-1101.162434 431.314278 2487.977028 85 101 104
-1259.661484 1187.958527 2860.398865 143 79 15
-1259.661484 1187.958527 2860.398865 143 79 15
-1123.495007 229.265356 2594.397545 176 175 182
-1115.637875 -133.025301 2560.759163 156 136 133
-1122.866917 200.900435 2607.722664 113 135 146
-1065.339375 428.349113 2490.040588 92 105 108
-1096.993065 265.970635 2573.535156 23 26 27
-1379.921532 530.736828 3431.446075 21 27 32
-987.339401 539.468050 2429.490089 22 28 31
-1031.795406 270.415354 2568.062973 22 25 29
-1005.925083 204.767227 2594.201660 85 109 116
-989.301014 283.950233 2557.669830 25 28 29
-957.261753 399.808192 2494.771576 25 28 29
-973.351288 168.221891 2604.503822 10 9 10
-904.328823 -531.272650 2382.989502 100 131 146
-926.408386 236.833572 2577.246857 23 25 25
-1035.671329 -263.495064 2841.718674 77 59 60
-656.942225 978.286076 2159.860611 81 81 69
-637.257910 121.345329 2453.782463 189 201 203
-637.257910 121.345329 2453.782463 189 201 203
-368.347788 -344.863558 1575.944233 223 232 234
-431.473970 329.639816 2374.012947 29 27 27
-358.923745 386.059189 2346.295738 176 187 189
-196.408343 1066.075420 2153.212357 85 51 42
-185.898125 472.809601 2786.701202 176 187 189
-154.406130 822.169876 2316.443253 82 84 84
-134.152424 767.748594 2325.602341 81 105 110
-127.037132 817.483807 2310.074234 79 85 84
-13.539304 -374.137974 2545.396805 38 38 38
0.422499 800.786591 2308.829880 89 95 94
98.083574 1012.773037 2091.401672 49 70 73
132.696319 -504.319859 2446.026611 34 34 34
241.189218 967.926407 2133.597183 9 10 8
196.080971 -298.282838 1566.494274 235 242 244
-9.893727 182.770348 558.982563 215 222 231
-1352.826118 487.890768 3103.096771 87 89 88
-1352.826118 487.890768 3103.096771 87 89 88
-1352.826118 487.890768 3103.096771 87 89 88
-1198.062229 915.045929 2545.804787 91 110 115
-1330.096054 474.925804 3104.105568 19 24 27
-1273.164558 354.668045 2705.911446 106 107 106
-1182.038212 318.038964 2611.064339 26 23 25
-1258.372021 239.349604 1887.169075 132 139 130
-1156.609631 -179.647028 1938.318634 76 55 55
-1217.678261 326.790285 2600.695229 20 26 29
-1046.679974 333.765650 2558.560753 26 23 25
-1077.604866 294.974351 2546.593857 21 22 22
-1077.604866 294.974351 2546.593857 21 22 22
-1084.651375 539.803600 2444.522476 22 25 27
-1015.636253 330.214596 2523.237801 26 23 25
-1015.636253 330.214596 2523.237801 26 23 25
-977.433586 242.735791 2547.878838 18 21 21
-960.279560 211.000586 2550.088692 102 121 128
-982.877541 541.630507 2430.415535 19 25 29
-968.088627 487.838650 2452.079964 21 22 29
-939.852142 279.615951 2527.225494 23 23 23
-946.305943 583.227253 2421.772575 88 107 114
-755.022860 -617.819786 2109.135056 206 184 186
-838.755894 279.748273 2525.350380 26 28 28
-743.496418 -202.066541 947.231674 224 234 237
-506.626749 332.139468 2407.965088 171 186 191
-711.909676 -38.977116 1494.891262 176 196 200
-611.429214 -211.547756 1638.890457 32 25 22
-313.926148 -66.197288 1703.604698 224 234 237
-453.130150 -506.244898 1861.350822 146 149 158
-452.313900 260.651612 2368.506432 176 196 200
-418.699598 -114.349186 2207.263565 32 25 22
-418.851852 -426.326990 2003.596306 230 242 244
-411.694670 -222.722363 2130.698586 217 230 232
-121.827233 35.988802 3091.501045 32 25 22
-418.472099 112.064099 2303.269958 47 27 16
-753.183556 -143.436396 845.722485 188 201 207
-405.535746 230.148959 2331.946754 181 200 205
-331.728768 -304.695129 1996.553421 224 236 238
-331.728768 -304.695129 1996.553421 224 236 238
-331.728768 -304.695129 1996.553421 224 236 238
-307.363343 33.887270 2194.594193 40 27 19
-306.985116 148.129773 2242.843437 191 209 214
-316.964507 375.020385 2316.888046 169 186 191
-323.948932 354.145026 2013.440895 172 188 194
-453.359795 -339.291406 1245.888233 179 188 197
-264.290023 140.240908 1606.233025 62 44 37
-298.901320 769.295835 2328.077698 9 9 9
-254.763889 -448.453903 1757.220268 169 172 161
-212.311506 406.871986 2263.551521 27 16 12
-212.311506 406.871986 2263.551521 27 16 12
-888.385201 584.436369 2185.252571 132 139 130
-888.385201 584.436369 2185.252571 132 139 130
-618.361235 -120.194411 916.535950 188 201 207
-199.928594 676.364279 2406.994247 62 88 95
-161.919689 789.671516 2304.469299 7 7 7
-152.226388 763.755226 2311.049271 70 100 105
-81.163287 483.994627 2583.511734 169 186 191
-103.818083 449.355888 2217.550278 172 188 194
-145.005715 811.836910 2291.197014 54 56 56
-83.426070 656.921339 2430.076408 43 64 65
40.535197 218.493533 1849.519539 62 44 37
-160.883534 1036.005020 2064.561653 65 37 30
128.738761 -275.079226 2328.648949 38 31 28
57.554275 530.836344 2555.077171 27 16 12
57.554275 530.836344 2555.077171 27 16 12
16.076040 371.356058 2133.549690 188 202 208
-31.844571 -396.053338 1673.883820 100 112 221
-31.844571 -396.053338 1673.883820 100 112 221
69.988549 760.297012 2320.195007 10 10 10
34.954607 -379.395342 1649.138451 179 188 197
286.768413 664.188337 3062.157440 169 186 191
199.300718 588.204956 2526.029968 172 188 194
645.153761 161.016548 3252.077103 41 29 23
289.579391 -237.788916 2302.898407 228 240 242
121.035540 926.656628 2163.574219 7 9 9
-110.043454 -13.522519 1391.274452 62 44 37
248.253393 452.127695 2034.831238 186 200 206
248.253393 452.127695 2034.831238 186 200 206
413.617897 685.376930 2025.085640 172 177 180
-1188.529205 153.064048 1982.007599 26 31 35
-1206.913757 223.652148 1825.356102 118 116 116
-1187.122726 205.716825 2010.624695 23 25 27
-1168.030643 181.532800 2035.481834 26 31 35
-1140.970135 236.019444 2165.794182 23 25 27
-1140.970135 236.019444 2165.794182 23 25 27
-1168.089676 271.555758 1928.165627 118 116 116
-1125.703526 305.322075 2350.157738 24 29 32
-1139.404678 260.748768 2150.675964 23 25 27
-1103.264999 253.051567 2295.503235 23 25 27
-1135.132313 533.224344 2440.864182 25 23 23
-1084.042358 299.839950 2335.485458 23 25 27
-1084.042358 299.839950 2335.485458 23 25 27
-1105.390358 270.215178 2191.836166 26 31 35
-1100.839996 312.139964 2256.405449 23 25 27
-1087.712765 282.625866 2249.452019 26 31 35
-1091.241741 491.227627 2466.752052 92 109 113
-1037.996101 323.293543 2493.239212 23 25 27
-1084.840775 499.853563 2459.512329 22 27 28
-1058.717537 297.044873 2349.188614 26 31 35
-1017.470837 329.957128 2505.183792 22 26 27
-1004.634094 386.528730 2544.359589 86 99 105
-1035.211754 503.787041 2454.959488 22 24 25
-979.218674 498.379183 2781.267738 17 21 25
-938.725948 381.775331 2755.530739 22 26 27
-938.725948 381.775331 2755.530739 22 26 27
-1037.266159 563.191557 2410.639191 88 106 112
-948.865509 416.126204 2641.206360 23 21 22
-984.564877 429.958105 2515.532303 132 129 126
-1004.935265 337.605429 2439.764404 112 107 106
-1011.038208 540.574312 2435.954094 20 26 26
-1011.038208 540.574312 2435.954094 20 26 26
-1021.679878 344.114542 2362.499237 112 107 106
-940.072823 404.763651 2587.964630 21 25 25
-940.200138 405.154133 2587.260056 21 25 25
-937.246799 349.127984 2570.857048 21 25 25
-973.096561 331.476974 2432.911491 25 25 26
-954.522800 438.702345 2504.103279 23 26 27
-979.178619 543.255949 2434.363365 25 27 28
-653.377438 597.266865 2501.664162 12 12 12
-484.931850 354.609609 2469.015121 178 194 200
-362.856174 -540.619612 2170.431519 102 97 110
-364.416718 -418.779278 2203.459167 238 244 248
-409.388638 347.816849 2400.736046 41 28 20
-354.924798 -103.755665 2273.911476 51 39 35
-334.099412 -341.558290 2194.378090 46 38 38
-164.259613 -58.331233 2575.029373 213 224 228
-449.108315 804.888248 2338.330078 74 89 94
-302.008963 383.339739 2329.784203 175 192 195
-367.080855 791.260910 2349.516296 12 12 11
-275.414658 155.991781 2258.896255 201 216 219
-230.692101 -307.697630 2104.023361 226 237 238
-230.692101 -307.697630 2104.023361 226 237 238
-267.146516 431.327295 2309.387207 169 185 190
-223.118210 -516.561079 2022.952080 207 215 220
-223.118210 -516.561079 2022.952080 207 215 220
-233.979774 667.566824 2455.580711 80 99 101
-233.979774 667.566824 2455.580711 80 99 101
-454.547930 -436.883688 1521.690559 240 184 162
-203.872275 406.896114 2255.504227 50 33 24
-432.686234 -390.248275 1517.613697 222 229 231
-129.761469 619.578266 2391.679573 11 11 9
-168.095779 755.381346 2302.024078 87 107 112
372.585583 1016.368484 3170.754242 10 11 9
-50.979692 -366.213274 1880.719948 47 34 32
-220.819330 997.483349 2027.961731 79 52 43
555.562401 -565.951538 2746.795845 207 215 220
555.562401 -565.951538 2746.795845 207 215 220
10.019066 804.479599 2257.339859 20 36 43
546.085787 838.399506 3046.834564 50 33 24
-26.564282 -440.775156 1822.477722 240 184 162
16.941698 868.966103 2172.299767 17 38 50
614.954853 909.738159 2979.067230 172 187 193
179.046166 793.028498 2213.749886 10 10 9
125.609064 809.603500 2144.554710 48 98 108
109.936416 845.660210 2122.035027 9 7 5
117.554712 849.639893 2129.070473 9 7 5
161.823130 504.189730 1957.003021 56 37 29
95.423579 -392.539954 1685.805321 181 186 190
167.773843 897.928238 2037.840652 6 8 7
795.998240 -333.906913 2505.308914 47 34 32
125.597167 -379.976368 1649.049377 83 159 203
247.745681 919.036579 1992.867279 51 105 117
246.309710 921.324921 1989.531898 51 105 117
197.278285 -351.079440 1565.000629 190 195 208
212.059855 -310.297585 1565.096474 234 237 238
-86.298192 -133.131754 1345.017815 231 236 237
-1186.441898 263.660979 2197.199440 117 135 142
-919.357586 241.698623 2627.759552 133 159 171
-929.326248 272.860217 2607.820511 28 30 33
-941.977406 301.427555 2585.303879 31 35 36
-1068.321705 522.167826 2429.944801 31 35 35
-950.623131 374.302173 2539.281464 32 37 39
-942.170620 392.108464 2523.883629 112 131 140
-1014.369106 535.480261 2422.628975 29 37 38
-996.497536 542.053032 2411.845207 25 35 37
-981.975174 539.211750 2422.201538 30 39 39
-937.773991 579.370356 2419.470024 118 141 149
-935.193157 589.607620 2432.091141 118 141 149
-413.902712 -572.949648 2137.905121 84 171 210
-390.079761 -535.051823 2130.932617 80 75 85
-354.258275 -338.859296 2166.247177 40 33 30
-597.840500 -201.631594 1850.270462 187 203 210
-398.060250 124.058104 2317.520332 48 24 16
-366.533041 15.902793 2274.057007 187 203 210
-291.100144 -535.885715 2049.858284 97 174 216
-291.100144 -535.885715 2049.858284 97 174 216
-389.184213 241.410303 2344.024849 172 190 196
56.968099 -490.497494 2150.766754 203 215 221
-240.950608 -305.794859 2090.482521 221 233 237
-240.950608 -305.794859 2090.482521 221 233 237
-526.893234 -180.889022 1795.907784 67 30 16
94.376040 -480.252123 2129.399109 230 158 138
-270.894599 699.741983 2500.441742 5 6 9
-267.610335 704.792976 2505.117798 5 6 9
-228.596520 667.822075 2466.846657 96 120 126
-207.526183 668.557119 2462.735176 16 17 19
-125.086343 -395.669937 1980.832481 224 239 242
-125.086343 -395.669937 1980.832481 224 239 242
-607.739735 947.866154 2091.502953 110 101 81
-607.739735 947.866154 2091.502953 110 101 81
-368.230605 1401.298141 2236.340332 86 25 7
-2.629398 -447.110319 1840.581894 230 158 138
-424.722958 1236.005116 2071.431732 86 25 7
-272.312832 -391.834140 1672.158623 224 239 242
-272.312832 -391.834140 1672.158623 224 239 242
-471.007872 1101.126671 1934.538078 86 25 7
579.453850 531.691885 2431.470299 180 194 200
-112.596834 499.164248 1793.775749 65 136 153
-316.930795 1008.590221 2009.841728 93 72 66
-316.930795 1008.590221 2009.841728 93 72 66
141.195238 817.135239 2164.525414 63 123 135
143.741202 557.861567 2050.629234 174 186 191
-261.098313 1041.487026 1954.682541 96 72 65
-261.098313 1041.487026 1954.682541 96 72 65
-261.098313 1041.487026 1954.682541 96 72 65
-151.704454 998.450851 2005.105019 90 55 49
175.865698 250.969291 1947.238922 180 194 200
-197.673440 -442.074394 1571.267033 203 215 221
-549.276400 883.863831 1716.878891 86 25 7
927.194405 434.281301 2479.295540 71 47 44
-453.065777 1016.763020 1771.916580 49 10 7
277.498078 -445.972300 1661.430931 17 19 20
1045.846176 364.242625 2438.165092 202 214 220
245.645547 391.786098 1916.207314 179 188 195
261.251211 -40.978244 1779.868889 202 214 220
261.251211 -40.978244 1779.868889 202 214 220
261.251211 -40.978244 1779.868889 202 214 220
-463.287735 -402.307558 1391.760254 224 239 242
272.585082 938.334179 2009.454155 65 136 153
1253.941059 252.964020 2314.749718 208 219 223
350.693941 -131.888795 1660.583496 208 219 223
-406.540871 -444.903755 1311.894989 203 215 221
-247.445321 1072.645855 1672.723961 241 115 21
-182.952881 1195.935917 1716.194534 241 115 21
-267.410660 1113.550377 1617.664528 243 131 31
-1145.183182 101.871467 1076.563644 44 90 73
-18.889636 1213.551331 1657.602692 101 67 54
-180.633914 1220.599651 1493.592072 24 20 21
-35.334527 1202.838421 1486.959457 39 25 30
-138.682055 1229.474545 1453.587055 101 48 36
-17.889528 1199.804020 1485.895157 182 199 207
-17.889528 1199.804020 1485.895157 182 199 207
-15.925840 1216.190147 1461.134434 100 120 127
-781.943178 -267.735243 885.267258 65 136 153
-127.972674 1234.672356 1347.060871 11 10 12
-137.410712 1260.294247 1341.967201 43 52 57
-567.100191 -760.289049 2383.138657 82 74 82
-911.397648 958.937931 3379.177856 12 10 10
-867.814732 951.892376 3290.961838 12 10 10
-851.523399 1052.320194 2385.673714 16 16 16
-446.526670 -545.515537 2011.828232 82 74 82
-823.917294 1206.848145 2538.607025 20 15 14
-920.502949 1077.942562 2200.809860 252 64 51
-340.558672 -507.447863 1964.822388 209 218 221
-393.658066 239.546394 2336.921120 213 219 218
190.370047 662.497234 2588.130188 207 212 213
194.311321 656.079340 2581.521034 207 212 213
-690.659189 1051.780510 2121.770859 20 15 14
-201.145458 692.124605 2452.708054 60 82 89
-589.175272 958.077908 2120.841217 16 16 16
186.584330 -401.432371 1815.575218 211 218 218
237.735152 647.263765 2375.537491 207 212 213
-376.948047 989.810181 2039.641953 74 62 51
-317.013860 1006.378841 1999.668121 78 56 51
-317.013860 1006.378841 1999.668121 78 56 51
-317.013860 1006.378841 1999.668121 78 56 51
260.003829 627.389860 2176.185036 207 212 213
263.550925 627.373362 2178.217888 207 212 213
-266.091847 1033.822250 1940.682602 72 51 41
-572.059155 728.100157 1492.653751 50 51 49
-572.059155 728.100157 1492.653751 50 51 49
369.461107 642.896843 1954.751205 203 208 212
696.574831 12.438980 1996.831131 228 233 236
-787.140608 418.466091 824.766445 209 209 212
-958.333588 954.020596 111.823952 225 233 236
-522.780037 365.564251 2286.840439 201 209 208
-544.665527 380.533552 2167.604446 201 209 208
-377.146554 -246.620774 2164.064026 229 235 234
-377.146554 -246.620774 2164.064026 229 235 234
-413.703680 122.642219 2268.620682 33 28 27
-765.198421 552.615404 675.116825 229 235 234
-417.640162 255.219483 2235.201645 210 218 217
-349.055457 -491.956425 1978.096199 220 229 229
-558.074188 740.341902 1274.752140 62 66 65
-310.679078 -376.072073 1876.595688 34 32 32
-402.427435 827.049923 2284.253502 66 78 85
-639.613295 411.131811 1048.172188 34 29 26
-639.613295 411.131811 1048.172188 34 29 26
-643.208599 451.224327 1056.006908 213 221 220
-643.208599 451.224327 1056.006908 213 221 220
-643.208599 451.224327 1056.006908 213 221 220
-643.208599 451.224327 1056.006908 213 221 220
-292.782140 41.776943 2167.922211 34 29 26
-292.782140 41.776943 2167.922211 34 29 26
-292.782140 41.776943 2167.922211 34 29 26
-292.782140 41.776943 2167.922211 34 29 26
-297.235298 156.766486 2213.013840 213 221 220
-297.235298 156.766486 2213.013840 213 221 220
-297.235298 156.766486 2213.013840 213 221 220
-297.235298 156.766486 2213.013840 213 221 220
-323.957634 390.458369 2251.054001 201 209 208
-323.957634 390.458369 2251.054001 201 209 208
-181.518471 612.483072 2554.239845 46 50 53
-216.664934 412.484837 2210.472107 43 24 21
-216.664934 412.484837 2210.472107 43 24 21
-442.751169 990.251637 1775.580788 149 53 47
-143.926454 764.105558 2322.034836 62 80 84
-136.814165 809.956264 2304.677773 39 44 45
-315.190077 1007.857800 2003.675842 51 41 38
-60.098898 713.152647 2388.851357 35 46 52
-60.098898 713.152647 2388.851357 35 46 52
-66.872561 556.033134 2175.729942 43 23 20
-12.167853 795.256805 2337.335777 62 66 65
-347.863936 1004.609394 1742.317772 154 53 57
-6.208503 372.855639 2054.300117 214 222 222
93.653399 517.928410 2054.328918 203 213 213
97.952211 406.170321 1999.937630 36 27 23
254.194951 795.120478 2325.432587 11 9 9
192.523837 842.869949 2233.332634 39 78 87
192.523837 842.869949 2233.332634 39 78 87
197.292459 544.828653 1994.290733 36 24 18
197.292459 544.828653 1994.290733 36 24 18
197.292459 544.828653 1994.290733 36 24 18
142.393386 151.536202 1699.618340 237 242 243
142.393386 151.536202 1699.618340 237 242 243
336.222196 908.408070 2106.666565 36 75 84
290.989089 582.387781 1941.075325 209 219 219
306.218958 960.866833 2071.453667 36 78 87
306.218958 960.866833 2071.453667 36 78 87
351.235318 657.412767 1940.852737 38 29 30
-733.318090 552.804232 780.945683 214 222 221
367.349505 655.910063 1939.712715 198 203 204
-220.976758 366.188765 1116.401577 239 244 244
-987.992382 530.845213 2345.966721 73 89 99
-986.158085 561.196136 2340.020180 27 26 26
-957.757378 291.417217 2336.408615 19 22 22
-955.060387 561.637640 2334.245110 28 28 29
-942.181396 270.755434 2318.404961 57 71 79
-935.465622 436.195660 2332.487488 29 29 29
-924.882793 -324.796486 2230.670547 107 84 81
-924.882793 -324.796486 2230.670547 107 84 81
-919.856548 299.410081 2326.366997 25 23 24
-914.738083 533.909559 2352.255821 69 85 92
-886.212730 -461.292601 2331.279755 23 22 21
-871.635056 -515.413475 2326.975822 102 129 147
-864.067745 214.451981 2297.491074 18 12 13
-856.760025 -832.115841 2326.720238 22 22 31
-823.765278 356.861687 2335.715485 30 33 34
-784.916925 470.679474 2370.660973 18 20 21
-758.895397 452.517891 2324.232101 65 75 75
-727.551651 -841.890335 2393.273354 210 190 193
-610.263348 -515.732384 2407.732201 220 226 225
-645.265198 186.113441 2277.674103 211 219 219
-645.265198 186.113441 2277.674103 211 219 219
-545.888615 602.112007 2525.040245 16 16 16
-728.624201 502.720785 871.987057 231 235 236
-829.768848 877.716255 -14.666690 232 242 241
-430.308962 348.119664 2274.688530 39 32 33
-240.503335 -780.042076 2791.947746 33 33 33
-412.179708 247.440147 2246.523094 215 223 222
-169.399297 -1021.685791 2885.340309 228 234 233
-92.061025 661.987400 2371.513748 48 67 68
-443.375587 251.508260 1080.880833 230 238 238
-443.375587 251.508260 1080.880833 230 238 238
-443.375587 251.508260 1080.880833 230 238 238
-443.375587 251.508260 1080.880833 230 238 238
-333.303094 15.094016 1290.239620 35 35 35
-333.303094 15.094016 1290.239620 35 35 35
-174.343634 -257.841921 1538.003445 208 149 141
-315.283179 558.128166 1634.100914 52 31 33
4.492102 365.638900 2089.850426 220 226 225
-26.303744 174.060655 1909.963608 228 232 233
-234.661722 98.590565 1333.704376 41 39 39
-234.661722 98.590565 1333.704376 41 39 39
-221.809912 0.009937 1316.033840 223 231 231
-221.809912 0.009937 1316.033840 223 231 231
-707.811546 632.297993 449.221516 230 238 238
-707.811546 632.297993 449.221516 230 238 238
-707.811546 632.297993 449.221516 230 238 238
-707.811546 632.297993 449.221516 230 238 238
-711.536407 607.451487 429.229116 35 35 35
-711.536407 607.451487 429.229116 35 35 35
-583.761120 733.593369 849.446583 52 31 33
208.927751 544.914436 2027.689934 46 31 29
196.496725 339.043069 1888.959122 42 37 36
196.496725 339.043069 1888.959122 42 37 36
196.496725 339.043069 1888.959122 42 37 36
176.236546 243.939662 1796.564102 227 235 235
176.236546 243.939662 1796.564102 227 235 235
176.236546 243.939662 1796.564102 227 235 235
75.454235 -82.519668 1414.316940 229 238 238
289.592195 372.879434 1831.412125 223 231 231
200.537801 13.374569 1470.315456 237 245 245
200.537801 13.374569 1470.315456 237 245 245
-79.005212 593.408585 1228.545380 229 239 238
215.590739 -86.259872 1407.824135 47 47 47
215.590739 -86.259872 1407.824135 47 47 47
-757.287741 679.291725 316.593814 206 215 218
-1171.025276 -49.336600 2522.417068 80 56 55
-1137.835121 592.055082 2213.302040 18 20 23
-1129.919624 551.760578 2241.798019 23 19 24
-1109.286022 554.424429 2236.378479 77 95 105
-1110.765457 -357.731175 2519.095802 90 65 69
-1087.790585 524.191523 2271.050644 22 24 25
-1079.867077 580.018711 2235.966110 22 21 23
-1079.867077 580.018711 2235.966110 22 21 23
-1096.581936 -130.255044 2506.987381 157 140 135
-1071.565056 546.312857 2273.620605 79 97 105
-1062.137222 525.716782 2281.584358 20 22 25
-1065.797329 -538.592243 2579.607201 89 69 68
-1048.969173 583.346510 2242.548752 21 22 23
-1041.410065 210.339355 2531.102943 63 80 89
-1040.642452 294.563413 2465.059090 19 20 24
-1027.498531 296.555328 2802.116585 21 23 26
-1021.031094 529.324007 2271.470261 35 46 51
-968.315506 304.167581 2442.910767 21 23 23
-952.671528 160.635674 2569.568825 15 11 12
-928.981495 215.132284 2527.838135 95 114 125
-909.555817 -503.576326 2550.375175 90 69 68
-906.661320 288.243890 2490.069008 22 23 23
-476.660109 317.918587 2418.510056 184 196 199
-429.493141 -92.397773 2140.201187 35 29 30
-429.493141 -92.397773 2140.201187 35 29 30
-419.307661 120.705807 2243.020439 43 29 31
-273.064351 -281.731629 2549.958038 223 231 231
-418.958378 -413.415623 1984.787369 235 243 243
-397.919750 -459.775591 1943.074608 233 239 240
-591.936111 79.224873 1085.398293 209 213 218
-337.765169 -392.104268 1900.623322 38 36 36
-335.617089 -268.142962 1951.724815 230 238 238
-335.617089 -268.142962 1951.724815 230 238 238
-335.617089 -268.142962 1951.724815 230 238 238
-333.349824 -152.282929 2000.597191 37 33 32
-185.806358 -211.669946 2419.495583 37 33 32
-316.977000 -464.964247 1840.305328 242 180 166
-590.975046 722.497940 1024.670315 35 22 20
-218.383741 305.701208 2153.361130 198 210 214
-218.383741 305.701208 2153.361130 198 210 214
-241.745901 -333.887053 1821.070099 229 237 237
-112.177837 444.945383 2163.030815 187 202 205
-461.273909 139.440465 987.867546 210 218 222
37.005335 648.131514 2508.672523 42 63 70
-534.586620 389.905190 747.064352 233 240 243
-317.481279 663.492584 1361.365795 35 22 20
-317.481279 663.492584 1361.365795 35 22 20
9.983730 -237.347555 1485.229301 210 218 222
184.126878 878.288651 2268.465042 12 12 12
167.611265 560.964680 1956.690979 35 22 20
157.881665 467.260742 1885.599899 200 212 216
124.276710 182.481015 1667.455482 44 35 31
108.070362 -12.838461 1528.139210 43 36 33
108.070362 -12.838461 1528.139210 43 36 33
108.070362 -12.838461 1528.139210 43 36 33
99.778122 -114.477479 1453.953075 234 241 244
250.040245 513.204193 1802.035522 43 32 28
186.937034 30.400711 1453.659534 232 239 242
247.728491 288.865376 1588.754463 218 226 230
267.126012 -64.433384 1205.802345 175 176 186
370.997357 1262.292957 1790.514183 78 92 93
393.589497 19.384010 1071.968079 158 157 170
412.151051 17.561629 1048.556232 213 219 227
-1105.579376 524.754286 1944.340515 18 20 22
-1090.620041 497.667503 1957.063675 18 20 22
-1037.142849 519.387674 2438.724327 68 78 82
-1118.008900 535.939455 1712.100792 18 20 22
-1123.724174 488.760805 1628.520393 24 24 24
-1040.007973 539.520407 2348.180580 20 22 23
-965.328693 -287.022996 2117.291451 114 92 91
-965.328693 -287.022996 2117.291451 114 92 91
-973.251057 522.361612 2694.194984 63 69 67
-890.710545 -703.324938 2156.497192 27 29 30
-1118.368530 460.361099 1492.884350 15 10 12
-1084.577560 496.940947 1760.624123 25 24 26
-1069.718075 495.763206 1862.463760 22 25 26
-957.278156 503.463364 2635.133553 22 24 24
-1075.736713 490.066338 1746.085548 70 79 81
-1116.696167 478.697968 1434.336376 60 69 73
-971.005535 516.175127 2532.067108 22 24 24
-1090.241241 489.835596 1562.640381 58 71 71
-1166.618633 579.178429 923.187256 181 62 106
-1001.651382 499.428320 1977.473259 26 27 27
-895.014858 482.485437 2584.176254 24 26 26
-828.328419 489.052439 3005.689812 22 24 24
-862.771416 498.981810 2573.930168 67 83 89
-870.163155 552.043962 1342.416859 203 212 215
-623.912907 -57.160050 1603.640366 45 43 43
-534.064198 -308.552766 1645.824051 173 176 183
-589.798689 -149.673343 1590.306854 230 239 242
-721.033382 436.247349 1520.363903 210 222 224
-519.401407 -137.628746 1535.107613 43 43 43
-583.869457 27.723676 1461.401176 230 238 241
-583.869457 27.723676 1461.401176 230 238 241
-583.869457 27.723676 1461.401176 230 238 241
-657.491636 321.954298 1428.048897 43 33 33
-693.045425 413.019037 1388.858700 210 222 224
-488.605642 -122.249305 1459.704494 226 233 236
-819.446087 630.557156 1134.632301 199 209 212
-421.875477 -118.025482 1508.157444 225 232 235
-519.116163 67.201406 1396.585369 45 41 40
-1205.708218 750.011396 263.086748 232 239 242
-1205.708218 750.011396 263.086748 232 239 242
-431.035328 83.263314 1369.888115 229 236 239
-723.623466 582.618332 1094.495106 49 32 29
-1103.189373 780.432272 465.908575 44 23 27
-80.128020 -245.687604 1518.772697 88 103 204
-80.128020 -245.687604 1518.772697 88 103 204
106.747639 -19.425243 1541.459656 47 36 33
106.747639 -19.425243 1541.459656 47 36 33
472.050571 -366.989565 1824.139786 229 237 237
-1293.400574 839.334106 129.907787 231 238 242
-1131.657887 478.055620 1537.092590 130 119 124
-942.478561 -333.875656 2192.989922 115 92 91
-939.780998 -333.599830 2181.978607 88 63 62
-1137.731171 659.095716 1130.566502 23 25 26
-859.946537 -604.090452 2064.822388 202 205 209
-899.723911 407.050180 1514.904881 216 221 220
-659.779119 -216.025281 1528.843975 180 175 182
-829.594803 561.498737 1308.689594 34 26 26
-775.511837 406.075335 1385.004520 36 32 31
-637.371159 -193.445814 1492.819691 176 180 188
-663.712931 5.736205 1490.344429 35 30 31
-636.557627 -70.194137 1465.337563 221 229 229
-784.196138 590.958452 1253.009701 212 218 217
-574.028397 -59.322602 1413.889027 35 32 34
-689.758301 531.325197 1275.282478 219 225 224
-689.758301 531.325197 1275.282478 219 225 224
-689.758301 531.325197 1275.282478 219 225 224
-655.260038 452.296066 1307.096577 37 32 31
-474.004316 -90.610641 1336.224556 168 158 166
-427.417564 -2.977078 1322.516346 40 41 45
-424.221659 -65.745300 1296.213150 190 199 203
-392.200184 -69.647557 1297.616005 221 157 146
-884.169388 658.084631 776.936960 219 225 224
-884.169388 658.084631 776.936960 219 225 224
-884.169388 658.084631 776.936960 219 225 224
-884.169388 658.084631 776.936960 219 225 224
-357.701564 -65.488547 1286.643791 173 186 192
-547.315598 661.679792 1176.700211 217 221 222
-547.315598 661.679792 1176.700211 217 221 222
-826.539040 588.716507 751.843929 40 33 30
-826.539040 588.716507 751.843929 40 33 30
-223.135543 -52.238947 1257.567596 194 208 214
-827.030563 420.428753 638.506508 190 199 203
-794.027233 435.632801 650.837183 212 221 224
-1175.986576 838.718224 324.587321 58 47 60
-424.123526 738.294029 1099.573231 216 220 221
-955.682182 570.670986 434.968042 190 199 203
375.720382 -169.666839 1363.357449 173 174 183
