ply
            format ascii 1.0
            element vertex 1908
            property float x
            property float y
            property float z
            property uchar blue
            property uchar green
            property uchar red
            end_header
-777.798653 -343.802094 1148.893642 77 78 83
-777.798653 -343.802094 1148.893642 77 78 83
-779.383183 -350.382471 1148.787212 177 193 200
-769.069195 -351.314163 1154.730511 52 47 43
-775.771713 -357.625699 1146.995354 166 185 192
-769.658041 -353.735375 1160.532093 38 36 36
-763.344383 -363.136792 1155.968857 93 94 98
-792.708397 -374.649477 1144.224453 117 138 148
-789.662361 -376.007509 1143.683243 117 138 148
-793.256330 -378.220034 1144.284058 40 36 36
-796.516466 -381.176615 1143.192673 64 59 60
-751.854277 -376.973605 1159.283924 38 33 32
-753.002262 -378.042150 1163.347340 124 136 137
-785.742283 -387.894607 1146.903515 79 72 69
-785.742283 -387.894607 1146.903515 79 72 69
-766.019678 -384.528804 1155.820179 154 173 182
-576.488209 -447.502136 1117.777252 38 36 36
-794.323730 -395.780587 1142.538357 27 14 14
-794.323730 -395.780587 1142.538357 27 14 14
-744.237852 -385.920358 1169.170761 168 185 193
-779.012537 -395.821714 1155.563545 121 132 133
-790.514183 -404.874134 1146.633434 35 36 36
-770.440483 -406.311321 1160.442543 154 174 183
-779.254436 -415.245485 1154.698181 59 53 51
118.869841 -712.420273 993.488121 194 201 200
-406.757784 -399.669051 1271.335316 140 152 162
-498.982763 -477.377319 1164.240074 37 37 49
-522.155285 -498.737001 1136.412907 39 44 56
-477.946854 -473.962831 1180.070877 43 44 54
-498.815680 -485.472155 1167.652798 122 108 110
-453.599977 -489.873886 1192.432117 25 31 46
-453.813839 -501.489639 1198.862553 32 36 49
-886.386395 -511.430931 1147.278786 122 57 32
-414.206791 -456.375933 1269.834995 50 47 47
-413.966560 -456.458044 1269.820690 50 47 47
-892.489910 -512.853241 1146.151066 100 112 120
-453.585911 -504.457664 1200.314617 32 35 48
-530.159903 -530.048561 1168.096066 30 33 43
-417.311335 -464.720201 1269.777203 152 170 177
-417.311335 -464.720201 1269.777203 152 170 177
-333.204722 -527.148676 1190.632915 57 74 92
-452.559805 -510.712433 1203.233814 21 28 43
-410.725117 -468.712807 1266.347980 152 170 177
-510.707712 -533.794117 1180.278015 13 20 33
-503.290701 -536.958456 1178.196716 13 20 33
-532.277060 -551.733971 1187.675762 48 52 56
-370.804358 -536.366558 1244.196033 150 167 174
-374.367690 -541.391563 1240.074635 45 49 64
-353.402615 -559.923792 1217.131138 116 111 113
-369.748259 -546.055603 1246.968746 154 171 179
-530.187654 -607.339716 1159.966850 66 81 96
-360.341930 -579.715538 1225.302696 36 38 52
-413.278723 -597.235489 1255.022907 141 162 170
-415.145397 -576.449251 1319.589329 103 121 128
-551.626062 -709.789276 1107.606792 222 228 225
-547.267962 -709.165335 1111.575985 65 77 92
-395.083904 -592.504025 1311.807442 132 155 165
-392.359495 -593.619394 1310.528755 132 155 165
-547.835588 -713.111687 1117.107773 70 77 94
-546.375179 -715.108395 1118.108177 27 28 43
-524.286890 -711.045027 1157.499123 41 50 63
-522.649288 -710.297298 1159.158325 48 54 67
-290.499592 -695.653057 1184.501362 141 158 165
-395.270991 -325.117469 1279.256058 128 140 152
-395.270991 -325.117469 1279.256058 128 140 152
-758.649635 -352.346253 1146.042061 89 97 102
-746.919632 -365.519762 1153.144360 136 141 140
-753.069258 -367.269683 1149.905682 11 9 5
-756.431293 -372.150278 1148.524094 12 9 5
-809.721184 -377.168250 1119.753170 215 213 212
-748.420238 -368.717980 1160.256386 120 133 135
-793.762445 -395.030046 1105.911446 126 123 123
-776.572275 -375.352621 1151.244354 160 179 186
-694.394398 -442.022228 1100.170040 126 123 123
-781.501245 -389.504480 1146.486473 88 79 77
-782.433224 -404.924107 1139.990139 112 129 136
-460.799742 -471.808290 1186.974430 48 48 56
-503.496408 -480.952215 1155.398846 39 43 55
-754.800034 -400.310612 1164.695263 154 174 179
-819.539070 -407.585526 1127.376842 212 213 211
-472.502089 -474.160719 1182.335949 49 49 59
-809.128284 -413.516617 1125.365543 212 213 211
-463.029814 -481.504774 1193.568611 34 41 54
-417.342186 -452.246904 1268.396091 176 189 197
-564.251995 -505.765486 1129.106808 154 174 179
-407.401514 -465.520191 1269.759369 160 173 181
-407.401514 -465.520191 1269.759369 160 173 181
-418.858480 -464.901876 1268.511486 167 181 187
-411.314774 -470.428753 1265.311337 167 181 187
-529.736662 -519.042397 1149.508953 40 44 56
-530.015755 -521.913481 1149.335766 184 201 212
-531.156397 -521.267509 1155.321407 34 38 53
-790.482426 -473.528481 1137.168980 217 218 218
-532.865524 -526.153326 1163.558006 180 199 206
-841.289043 -452.860689 1165.170860 106 125 137
-856.200027 -458.195543 1154.261875 90 101 106
-361.757612 -538.481951 1243.716049 163 177 184
-357.995868 -542.630482 1247.892284 159 177 183
-528.090620 -547.280502 1192.123508 44 46 56
-324.518991 -577.006865 1223.498154 28 35 50
-526.786947 -549.875212 1193.459225 170 152 151
-492.088127 -557.899523 1196.923733 157 143 142
-441.534090 -565.515232 1218.121052 44 55 74
-536.403799 -572.359371 1177.445412 177 194 199
-535.699940 -583.990049 1173.381805 23 28 37
-534.014654 -591.483450 1168.979645 47 54 60
-439.491510 -585.855818 1215.467834 113 117 135
-534.992075 -610.475588 1159.159851 68 75 88
-558.160448 -637.681055 1137.052727 27 23 16
-554.368305 -639.291286 1136.391640 27 23 16
-558.374023 -639.022350 1139.358425 84 86 89
-399.414849 -576.544237 1318.167305 111 130 138
-394.098186 -585.777760 1317.613983 118 136 143
-468.182421 -621.232653 1243.324852 163 183 188
-551.764965 -698.979282 1108.043957 111 114 125
-549.754000 -712.374306 1112.794018 77 83 102
298.290086 -916.889286 1005.385017 236 241 244
-80.577576 -837.487507 1073.335838 49 68 84
-543.850946 -716.973305 1119.853878 15 14 31
-541.087294 -716.199780 1125.205708 70 75 92
-535.831785 -716.243219 1131.188583 73 79 92
-527.701187 -710.430098 1146.905327 28 29 40
-513.432455 -711.036921 1156.022263 123 125 136
-476.171589 -272.723842 1290.075111 102 120 129
-402.040100 -517.449999 1153.016567 184 201 213
-412.864017 -454.182816 1198.611736 186 202 209
-394.886899 -481.545544 1179.236603 47 52 61
-394.886899 -481.545544 1179.236603 47 52 61
-466.300344 -455.482912 1193.136215 56 55 62
-746.638203 -353.478861 1149.381638 172 192 200
-752.291155 -357.709670 1144.733429 174 191 198
-751.982594 -359.536791 1146.596622 49 45 46
-504.751444 -465.955830 1174.807072 39 39 47
-500.633621 -468.051338 1179.749012 46 44 51
-523.272181 -477.215958 1150.545120 33 36 49
-426.045752 -471.018744 1241.370583 186 201 207
-528.424168 -484.055853 1144.518661 49 56 69
-415.280008 -457.032394 1273.162556 55 60 61
-411.591101 -461.776400 1275.512600 162 179 184
-408.936548 -463.831425 1274.876595 162 179 184
-416.085625 -467.136860 1266.665745 164 180 187
-752.406597 -384.160042 1155.072689 24 17 15
-399.297428 -480.300331 1269.345760 150 168 171
-772.092581 -383.113050 1154.769421 58 71 75
-409.387398 -487.261772 1254.009056 171 186 190
-733.986950 -398.257899 1163.264942 68 76 76
-705.411005 -449.255753 1104.261017 107 102 103
-705.411005 -449.255753 1104.261017 107 102 103
-778.133583 -391.131020 1146.250629 78 71 67
-740.888405 -397.788453 1164.063168 73 81 80
-804.552937 -385.771680 1142.497921 110 127 138
-751.552153 -398.051596 1161.333179 51 47 44
-786.862707 -393.144155 1144.991493 11 5 1
-781.166315 -399.824023 1153.016853 80 83 84
-799.715900 -403.218508 1145.870304 125 145 154
-780.191278 -402.521658 1162.204170 143 159 168
-355.339146 -548.573637 1239.289474 168 180 184
-304.339242 -579.544449 1231.509113 166 182 187
-302.669883 -580.811405 1231.076527 166 182 187
-800.909996 -418.035793 1159.294987 120 140 150
-522.925186 -538.235855 1180.455780 11 16 21
-519.779348 -551.306200 1190.679359 20 22 28
-346.128392 -601.180220 1305.574036 120 142 148
-330.332923 -616.530275 1307.973480 112 135 143
-527.122688 -598.779058 1251.585770 149 169 175
-320.966411 -691.446829 1209.929943 135 154 160
-134.071815 -807.224846 1134.458637 66 90 110
-136.285043 -808.867836 1133.312511 65 73 85
-140.119088 -818.816090 1133.654785 10 18 31
-142.644465 -819.418144 1133.664131 68 89 107
-142.644465 -819.418144 1133.664131 68 89 107
-192.501497 -706.976604 1159.900284 14 17 26
-354.078722 -514.266968 1222.278118 179 198 205
-352.641678 -519.118500 1222.869873 11 15 26
-733.125734 -394.278455 1167.377663 35 37 40
-780.771542 -380.544925 1144.165993 107 128 139
-777.985430 -380.638480 1149.623299 136 145 152
-737.157440 -394.969749 1170.735931 157 173 185
-498.287392 -534.089518 1172.152996 23 24 34
-820.208740 -390.992379 1079.711723 213 215 215
-759.216738 -394.029713 1158.288383 141 159 171
-805.313969 -386.733651 1118.049717 211 211 211
-24.353933 -848.292446 1133.655357 14 20 28
-753.263092 -399.362493 1165.800476 148 165 173
-401.868486 -620.904493 1225.105667 22 43 54
-58.056861 -864.158440 1142.532730 47 66 85
-615.153170 -165.827489 1101.125813 240 239 237
-615.153170 -165.827489 1101.125813 240 239 237
38.172016 -906.091595 1162.377644 30 29 34
35.905689 -904.385662 1163.695717 30 29 34
-714.972591 -372.352362 1162.257385 82 90 101
-747.734976 -352.986908 1155.967999 33 26 25
-763.336945 -346.096253 1145.447826 179 190 201
315.165520 -1147.347832 1118.976307 179 190 199
700.855494 -1499.733162 1103.950405 182 183 193
707.263517 -1506.767654 1102.565956 162 171 179
696.983910 -1494.598484 1104.743290 63 49 75
703.083324 -1501.650906 1103.432465 52 43 63
712.316322 -1512.106705 1101.440144 162 164 174
716.617298 -1516.705322 1100.518227 57 56 70
710.311508 -1509.084129 1101.898289 76 74 90
712.221289 -1510.883522 1101.513767 161 169 182
703.101587 -1500.152493 1103.418255 42 37 61
708.921766 -1506.617928 1102.199078 138 149 159
699.624157 -1495.734310 1104.128933 114 115 132
711.351156 -1508.739758 1101.693344 146 154 164
719.340086 -1517.381477 1100.121689 42 50 58
683.391285 -1475.854206 1107.180214 97 101 110
687.811899 -1480.635262 1106.309700 103 105 115
649.857092 -1436.668968 1110.806751 35 22 43
649.857092 -1436.668968 1110.806751 35 22 43
676.373625 -1466.611195 1108.209324 131 133 143
692.401028 -1484.747028 1105.279827 97 100 109
688.979673 -1480.592632 1105.884075 52 55 66
691.418076 -1483.076382 1105.382633 33 30 43
684.942675 -1475.284195 1106.453037 157 164 171
664.767218 -1451.609039 1109.714508 50 49 67
672.846079 -1460.625553 1108.329201 143 144 158
672.846079 -1460.625553 1108.329201 143 144 158
666.627359 -1453.485107 1109.337425 160 164 174
678.057575 -1466.350937 1107.400322 145 147 160
669.617462 -1455.969334 1108.578587 50 54 55
647.401047 -1427.987766 1110.649586 129 139 147
636.532879 -1415.262127 1111.738777 129 139 147
596.863890 -1370.191479 1115.024662 142 153 161
571.825409 -1342.426014 1116.867638 45 47 47
589.705467 -1362.136269 1115.299320 118 133 145
567.012644 -1337.184811 1116.948605 214 214 214
567.012644 -1337.184811 1116.948605 214 214 214
512.903118 -1291.686058 1115.746403 39 49 63
960.843658 -1739.326668 1018.503380 187 205 212
498.772287 -1278.092575 1117.673206 39 49 63
545.181990 -1313.361740 1117.924023 115 123 126
540.554047 -1308.440781 1118.058777 96 104 108
722.888088 -1500.918198 1080.155849 71 79 89
732.908344 -1499.308968 1086.038494 36 36 46
658.292484 -1423.334789 1098.839092 46 44 53
571.039295 -1340.453148 1113.914299 183 201 208
561.965656 -1332.170296 1114.560223 29 29 33
368.667030 -1155.090332 1134.809399 26 27 37
408.141470 -1192.251110 1132.695675 72 69 76
283.118057 -1085.670567 1142.488384 69 66 71
318.055558 -1112.751484 1134.194279 38 39 49
322.111011 -1117.009449 1133.874702 38 39 49
-267.983413 -661.930084 1309.383583 136 152 161
84.858429 -949.752998 1168.354321 186 198 206
550.341702 -1313.443470 1122.672558 190 208 216
897.256184 -1708.773613 996.142101 135 140 149
823.555851 -1686.243629 1075.215912 40 36 49
896.748829 -1705.567932 996.167564 95 73 57
830.418396 -1682.889366 1061.750221 108 111 121
830.418396 -1682.889366 1061.750221 108 111 121
821.568108 -1678.790855 1073.094749 22 14 31
819.228268 -1679.035568 1077.438831 50 49 60
829.244328 -1678.508949 1060.801411 99 102 112
856.477833 -1685.957336 1030.178452 67 57 54
818.173313 -1673.080254 1074.521923 112 113 124
825.037861 -1672.903442 1063.549805 80 83 92
816.338348 -1672.161293 1076.905537 39 37 51
820.497131 -1671.582794 1069.580269 20 19 29
817.541504 -1669.821930 1073.040199 50 40 58
815.693855 -1669.512367 1075.976181 62 56 74
819.639206 -1668.763161 1069.027328 86 86 98
812.273884 -1665.671539 1078.796482 142 145 153
819.839764 -1663.761711 1065.206718 90 91 101
810.035706 -1663.803101 1081.340790 37 32 48
808.159733 -1659.874916 1081.131935 36 26 51
808.159733 -1659.874916 1081.131935 36 26 51
808.159733 -1659.874916 1081.131935 36 26 51
813.665104 -1660.140228 1072.336102 32 23 45
813.665104 -1660.140228 1072.336102 32 23 45
813.791084 -1657.376289 1070.153904 139 142 155
810.432243 -1654.983902 1073.652458 154 154 161
814.651585 -1654.381943 1066.809750 139 147 153
803.691292 -1652.365494 1082.603359 159 161 169
801.574516 -1649.175262 1083.518600 43 33 50
805.754948 -1648.896027 1076.446056 60 55 72
808.261681 -1648.414993 1072.044373 136 139 147
808.261681 -1648.414993 1072.044373 136 139 147
806.299400 -1647.972679 1074.910355 135 134 143
810.010338 -1647.541428 1068.997955 134 137 142
801.054859 -1645.803833 1081.584263 40 35 53
801.054859 -1645.803833 1081.584263 40 35 53
798.766327 -1644.534683 1084.443665 143 147 152
795.698786 -1641.300201 1086.783600 40 32 43
802.725315 -1641.311836 1075.441742 148 155 158
794.459724 -1641.074181 1088.918400 140 141 150
800.651264 -1640.188980 1077.797890 145 150 153
800.651264 -1640.188980 1077.797890 145 150 153
807.351780 -1639.085579 1067.064381 32 33 37
796.949577 -1637.825775 1081.789589 33 25 40
792.468834 -1636.664391 1088.323402 120 123 132
798.493719 -1634.433174 1076.672173 36 30 51
793.008661 -1633.965683 1085.098267 106 106 117
789.553642 -1632.847595 1089.837646 50 40 55
789.553642 -1632.847595 1089.837646 50 40 55
791.518784 -1633.122826 1086.807632 25 21 36
794.680691 -1631.270981 1080.053616 44 36 54
799.763727 -1629.441071 1071.053219 74 79 83
791.489744 -1628.287888 1082.762909 30 27 42
786.613226 -1626.383209 1089.223385 113 118 124
789.080095 -1623.399544 1082.597828 105 109 114
790.643454 -1623.438644 1080.205727 30 28 44
794.318247 -1621.203995 1073.076725 58 61 65
780.490541 -1618.131828 1092.357731 48 41 54
787.965488 -1617.318344 1079.465103 114 115 125
786.268568 -1617.384720 1082.201767 20 15 30
786.268568 -1617.384720 1082.201767 20 15 30
783.409214 -1616.637039 1086.105824 24 25 36
777.095079 -1614.173508 1094.490719 178 174 183
777.095079 -1614.173508 1094.490719 178 174 183
778.836203 -1612.683868 1090.079308 42 28 53
782.387495 -1611.175919 1083.178616 24 17 36
778.758478 -1609.535789 1087.464046 153 154 163
772.045851 -1605.117035 1094.637775 49 36 53
777.890778 -1605.025291 1084.982586 156 159 167
773.058367 -1600.814819 1089.010334 29 19 43
773.058367 -1600.814819 1089.010334 29 19 43
769.266415 -1600.553703 1095.066261 181 179 189
770.345163 -1598.563385 1091.371346 161 162 168
929.646206 -1708.477974 993.144608 60 66 75
771.465588 -1597.137165 1088.315868 143 142 151
766.612339 -1596.994400 1096.153545 47 35 55
772.370243 -1596.019840 1085.993195 50 47 60
774.522114 -1595.130253 1082.084656 147 154 162
768.984413 -1593.121433 1088.752556 38 28 47
769.840574 -1590.303326 1085.049438 161 161 172
763.483953 -1587.334251 1092.190361 60 42 74
767.295933 -1587.328720 1086.315441 44 34 61
767.295933 -1587.328720 1086.315441 44 34 61
764.851046 -1586.266041 1088.994026 125 129 137
761.520290 -1586.339474 1094.489956 56 46 69
762.788200 -1584.474277 1090.718937 157 157 170
759.621716 -1582.838345 1094.264317 150 150 160
937.715435 -1703.866005 989.531612 82 87 93
756.298256 -1579.530907 1096.499538 45 38 50
756.759834 -1575.739765 1092.158318 35 26 33
758.802366 -1575.347233 1088.709164 22 14 18
749.031401 -1574.164677 1103.399181 45 36 51
761.876011 -1573.223305 1082.606888 27 28 30
746.357441 -1568.472958 1102.068901 176 175 187
753.744984 -1567.895126 1089.811802 106 111 118
747.519732 -1566.821194 1098.436832 37 25 51
743.816328 -1565.294075 1103.077126 43 28 57
749.889278 -1564.484119 1092.508602 58 52 70
739.353848 -1557.412338 1102.464485 150 151 159
739.353848 -1557.412338 1102.464485 150 151 159
736.039734 -1555.786896 1106.453514 36 16 45
741.684914 -1555.236435 1096.535969 28 18 37
741.361380 -1552.531052 1094.434547 125 129 139
743.504238 -1552.724075 1091.484070 34 35 44
737.335300 -1551.205063 1099.413586 103 108 113
735.395670 -1547.147751 1098.456764 90 91 101
742.634916 -1546.926498 1087.627888 24 27 31
755.169821 -1550.607777 1075.063610 136 152 165
730.968714 -1543.697453 1102.096748 49 44 55
730.968714 -1543.697453 1102.096748 49 44 55
731.968832 -1540.050411 1096.873951 42 41 46
731.129551 -1537.911797 1096.090126 24 23 25
723.976231 -1533.465862 1102.872562 44 30 62
724.989271 -1532.497311 1100.260353 197 196 203
726.552868 -1531.101799 1096.593761 48 34 59
717.903757 -1527.341080 1106.252480 54 38 53
717.903757 -1527.341080 1106.252480 54 38 53
723.103285 -1526.586723 1097.291183 151 150 160
718.845463 -1524.478149 1101.704884 16 7 23
720.803404 -1522.541523 1096.885872 56 52 64
713.456869 -1512.429333 1097.874737 144 153 161
702.905893 -1508.525276 1110.225964 174 180 191
703.265810 -1506.369495 1107.164574 56 49 69
955.246639 -1592.410564 977.591896 174 192 201
955.246639 -1592.410564 977.591896 174 192 201
690.652370 -1491.873455 1111.303329 16 10 19
779.789972 -1385.483170 1038.037109 183 198 207
780.068350 -1385.630035 1038.061142 183 198 207
910.747337 -1605.923653 996.337986 16 16 27
914.128971 -1607.119560 995.069981 13 12 23
685.383368 -1483.629227 1110.403061 17 19 30
686.162901 -1480.943108 1106.149864 95 103 111
974.420261 -1628.045464 975.181675 34 45 57
669.699097 -1465.137100 1114.242363 61 60 78
669.014549 -1461.874008 1111.409569 139 146 156
665.829659 -1461.402893 1116.144371 39 37 53
671.050596 -1462.043285 1108.437824 139 145 156
832.217216 -1558.225918 1027.786446 22 23 33
661.840582 -1457.059097 1117.462063 143 150 159
860.465336 -1563.445091 1016.898632 49 48 57
910.712433 -1576.737690 999.627686 57 55 60
1194.985676 -1693.851089 908.708858 37 39 39
1186.150932 -1689.836502 913.428020 110 126 132
1199.606419 -1693.028069 909.347534 111 123 129
856.745434 -1522.746372 1022.263527 143 127 121
565.593100 -1337.733269 1117.467117 215 213 213
791.150570 -1475.435162 1038.965321 180 197 206
827.549839 -1480.714321 1032.742786 44 41 51
825.583172 -1473.009014 1035.065269 155 135 132
801.461506 -1454.030323 1039.834595 120 108 108
801.146603 -1453.890610 1040.127277 120 108 108
991.437054 -1532.826900 1024.910545 183 200 206
690.545464 -1364.842319 1058.090305 15 17 29
746.873856 -1390.190983 1053.257275 84 79 81
740.731049 -1386.923504 1054.227066 88 83 85
1085.379219 -1643.765831 1001.560593 118 127 131
1310.752106 -1656.597328 1000.154495 121 137 143
1311.128235 -1656.767082 1000.365829 121 137 143
1301.453781 -1651.593781 1006.363297 121 139 147
738.227463 -1329.196835 1077.915096 188 203 215
738.668919 -1329.435921 1078.168011 188 203 215
1508.179951 -1865.017700 1261.552811 48 53 62
935.984135 -1778.804779 1022.580051 113 121 121
932.995224 -1773.556328 1015.144348 43 50 50
929.728794 -1763.953400 1000.050545 90 101 101
928.814793 -1765.930367 1007.892895 37 41 42
927.643490 -1763.428497 1003.770733 38 44 43
910.969067 -1780.299568 1069.473267 139 60 17
942.305183 -1749.011993 981.919003 136 144 152
939.393616 -1743.357086 975.310421 120 128 134
939.695644 -1740.367317 971.526718 102 105 111
933.378220 -1733.362961 969.379997 111 37 0
892.749786 -1751.801300 1061.209583 162 150 165
926.355267 -1727.032661 969.831181 121 119 120
893.942642 -1750.030327 1059.108639 62 46 49
923.015976 -1740.736771 1023.448467 15 7 11
923.015976 -1740.736771 1023.448467 15 7 11
895.137119 -1747.924614 1054.784775 43 19 17
897.040272 -1726.809311 1052.262402 80 88 104
886.517143 -1693.371964 977.901649 139 147 159
862.772846 -1701.699257 1072.946835 41 39 50
850.727367 -1700.907326 1077.096939 24 8 72
857.772636 -1693.903160 1070.731449 101 103 115
843.757534 -1672.719193 1064.729595 14 14 16
835.881805 -1672.539520 1073.023319 28 34 41
824.691391 -1665.214920 1080.893326 44 32 53
818.238544 -1659.785461 1084.845734 153 155 165
821.705914 -1656.595993 1076.034069 39 30 51
816.463661 -1651.762390 1077.242565 125 127 136
813.841438 -1648.687935 1078.790188 49 46 60
813.841438 -1648.687935 1078.790188 49 46 60
807.805920 -1644.120216 1084.012508 141 144 153
807.167721 -1638.103104 1078.375721 140 146 154
804.997063 -1637.450790 1081.107426 30 20 44
798.952055 -1636.181831 1088.535118 118 119 129
797.696352 -1624.166870 1079.638958 16 14 25
774.857521 -1599.036312 1081.961155 26 20 35
765.325260 -1599.769783 1095.849323 73 72 82
684.455729 -1486.883926 798.429775 183 202 209
765.375805 -1590.603638 1087.047100 177 178 188
751.517630 -1582.571983 1105.749798 23 20 30
750.701714 -1582.124710 1105.441666 23 20 30
778.835297 -1418.719673 626.372004 150 163 167
784.710169 -1401.031971 588.198137 129 143 149
664.251757 -1479.282665 863.806248 185 200 211
662.623882 -1478.329182 862.983322 185 200 211
745.077324 -1564.369202 1096.476936 161 163 169
656.357718 -1470.708561 861.750412 11 11 19
747.254133 -1560.972881 1093.683434 148 151 159
747.254133 -1560.972881 1093.683434 148 151 159
769.698429 -1381.356049 569.555140 136 150 156
736.760521 -1559.411335 1105.921745 158 163 167
741.232920 -1555.909824 1096.932125 35 28 46
1130.329037 -1569.245338 1005.637550 170 186 193
1129.715347 -1568.688679 1005.132008 170 186 193
644.289827 -1457.341957 876.829624 43 50 60
727.925920 -1544.601059 1103.654861 40 44 49
719.976950 -1536.566639 1108.931828 191 193 199
636.831141 -1445.407486 882.810211 181 199 208
637.773037 -1441.232109 880.465508 22 25 38
717.336321 -1529.095459 1109.018421 61 55 67
714.545536 -1530.932617 1117.239571 49 46 58
625.181341 -1429.980755 870.499706 106 105 111
714.710140 -1528.076458 1114.749050 180 186 195
713.897943 -1527.599716 1114.387226 180 186 195
726.191473 -1506.465816 1086.504459 68 77 86
704.481077 -1515.767956 1119.213295 182 192 200
720.476294 -1504.492950 1097.030735 139 146 150
703.370333 -1508.783817 1118.653488 156 164 174
633.250284 -1400.737286 866.660404 15 18 26
713.258457 -1497.697163 1106.896400 14 19 17
705.673122 -1494.194508 1109.979439 14 16 24
701.250029 -1496.505833 1118.784523 13 18 27
694.396353 -1496.532440 1127.001858 90 92 100
696.862984 -1493.938541 1124.554634 37 36 45
693.202639 -1492.925930 1128.949642 37 41 52
633.971167 -1381.410789 860.127831 184 201 209
682.152224 -1295.034313 629.278040 138 157 164
242.117739 -1361.680031 907.565117 44 32 53
242.117739 -1361.680031 907.565117 44 32 53
694.317150 -1478.839016 1116.081715 147 152 160
688.964272 -1472.175789 1125.189209 77 77 91
562.927866 -1260.840225 637.410450 158 177 182
608.644629 -1243.953228 585.582399 138 157 164
606.796789 -1242.688847 584.529257 138 157 164
604.497910 -1334.173775 886.238003 187 204 213
681.603765 -1416.549301 1126.364136 138 148 158
587.955141 -1271.953583 859.252548 104 96 96
584.380293 -1271.776867 862.440586 39 37 43
532.350254 -1194.606113 923.800945 59 60 74
559.819603 -1109.016514 756.264257 179 198 205
562.466192 -1105.745792 770.251179 38 40 49
562.466192 -1105.745792 770.251179 38 40 49
1021.777153 -1885.570526 1027.540493 166 154 149
1023.038769 -1872.432518 1013.109303 236 228 225
1024.455070 -1864.307022 1000.289249 129 129 129
1029.476833 -1874.266243 1032.192135 184 97 61
1034.659290 -1865.265083 1019.732761 219 213 210
1032.700443 -1856.743431 1007.737923 163 162 164
1025.940418 -1881.870270 1053.633308 210 111 65
1054.779053 -1856.542206 1007.880783 243 233 226
1018.738651 -1875.589371 1052.298737 200 108 67
1033.447838 -1856.905365 1017.922401 87 25 2
1032.543373 -1851.010895 1013.475418 132 126 128
1060.620594 -1852.333641 1009.328842 119 44 8
1025.542164 -1868.853760 1045.288277 175 102 69
1033.746719 -1852.986526 1016.802883 96 32 6
1029.741383 -1861.844254 1034.120655 144 62 25
1053.714371 -1853.537369 1016.099072 245 235 227
1053.714371 -1853.537369 1016.099072 245 235 227
1050.414276 -1852.986145 1018.307114 136 133 134
1024.022579 -1871.402168 1057.783222 191 103 64
1023.962212 -1860.756111 1040.753365 144 53 14
1018.727589 -1838.948822 1011.263847 170 167 165
1052.378082 -1837.169456 997.895432 133 143 154
1028.094101 -1857.569122 1038.232803 138 55 16
1020.748997 -1867.126465 1056.627941 178 91 51
1032.232761 -1857.552719 1038.413906 224 157 124
1023.112106 -1836.981964 1010.018063 239 230 227
1023.976135 -1837.320709 1010.572529 239 230 227
1013.610363 -1855.034447 1060.757160 136 48 14
1033.814812 -1824.170876 1007.076931 110 41 6
1027.550697 -1863.367844 1081.372070 157 167 167
1012.746334 -1845.676804 1066.961956 196 100 60
1014.612103 -1836.350632 1052.538013 18 5 8
1012.758064 -1838.702202 1057.116699 88 83 84
1364.832401 -1976.569176 1170.397854 20 23 31
1012.950134 -1835.503006 1055.304432 89 95 94
1030.865669 -1827.391052 1038.464165 78 98 121
1023.459435 -1826.965523 1042.098808 17 6 12
1008.953476 -1832.870293 1056.703949 30 30 28
1006.871700 -1829.492569 1055.662441 87 90 91
1022.320461 -1820.173836 1036.065483 27 24 46
1025.204659 -1827.344322 1047.945976 111 125 127
1023.438644 -1828.275681 1050.611687 14 4 3
1023.016644 -1827.628899 1050.361538 15 3 3
1027.720165 -1823.639870 1046.327019 112 122 125
1026.604366 -1815.726852 1038.490391 142 153 167
1014.642429 -1824.392509 1055.185127 18 22 20
1014.642429 -1824.392509 1055.185127 18 22 20
1043.322563 -1808.673668 1023.080063 119 125 132
1011.486530 -1822.325706 1056.291962 95 102 103
995.760155 -1824.961090 1065.796089 105 111 112
1026.408195 -1818.004036 1045.307350 14 8 5
988.996887 -1823.036194 1067.019558 101 107 106
988.996887 -1823.036194 1067.019558 101 107 106
996.884346 -1821.315575 1062.210274 18 4 5
1371.759510 -1953.368759 1151.665783 49 59 69
1025.200272 -1817.520142 1048.733521 114 132 136
1006.453419 -1818.560410 1056.840229 59 64 62
1022.671413 -1809.315109 1038.539696 25 10 12
997.609234 -1816.853523 1058.274841 104 105 105
1016.219711 -1816.692162 1053.257847 37 41 40
1001.007843 -1813.448143 1056.333447 117 124 126
1027.118874 -1813.234329 1047.568226 129 142 145
994.563007 -1811.507988 1062.020779 34 12 24
1010.922718 -1792.397308 1041.725349 14 6 7
1012.353897 -1809.413719 1070.473480 118 125 136
1008.150291 -1781.826591 1035.660553 124 131 140
1015.764713 -1776.564598 1029.463863 109 115 118
936.394405 -1754.920197 1036.861610 136 147 160
944.556427 -1749.756050 1033.641434 115 127 137
937.533855 -1747.356415 1036.278725 12 7 9
940.225124 -1775.874901 1077.087116 157 147 160
1333.336449 -1799.547386 1016.293144 27 25 27
915.306664 -1712.106133 1049.210835 83 67 56
912.407112 -1705.167198 1048.473167 71 66 69
832.706356 -1690.359497 1058.883190 78 83 93
834.785080 -1683.810043 1059.814835 103 112 118
834.785080 -1683.810043 1059.814835 103 112 118
1373.822594 -1848.041153 1110.867119 22 20 17
1372.307205 -1844.023323 1111.608982 183 193 195
823.335838 -1677.047157 1064.884377 23 22 38
817.464256 -1674.665260 1069.249535 33 26 43
817.464256 -1674.665260 1069.249535 33 26 43
828.818512 -1673.524284 1066.013527 59 58 69
1225.043488 -1804.552460 1112.997341 10 11 21
677.653313 -1571.302223 1034.922409 159 162 169
815.938950 -1656.700134 1065.098953 31 31 43
810.304546 -1654.362869 1069.178486 136 144 152
795.903158 -1644.142151 1074.028778 33 27 47
799.790335 -1636.632919 1071.450901 45 43 55
779.900932 -1633.925819 1076.244068 129 128 138
779.900932 -1633.925819 1076.244068 129 128 138
788.217974 -1625.510406 1067.953968 38 43 46
779.679775 -1630.055046 1077.422523 48 43 61
1191.754150 -1783.671570 1138.635159 16 20 30
789.121580 -1614.881134 1064.603424 26 30 34
779.578209 -1619.320297 1074.100208 92 97 108
767.746305 -1615.433121 1079.975891 36 33 46
775.551224 -1612.279701 1077.938938 31 27 37
1187.417698 -1766.039467 1137.375450 19 19 29
767.046261 -1594.664192 1082.201958 50 47 62
753.141308 -1588.053513 1084.550953 159 162 169
753.141308 -1588.053513 1084.550953 159 162 169
749.269772 -1587.694454 1089.333820 185 191 194
740.459061 -1578.758907 1086.800289 59 51 68
754.710722 -1577.402687 1081.519890 161 166 170
752.280283 -1577.700615 1086.029434 33 24 40
727.607727 -1559.812164 1085.017109 32 32 45
727.516079 -1555.255985 1085.091686 146 149 157
1197.357559 -1730.798340 1128.526497 182 199 208
711.161757 -1554.583645 1092.362881 171 174 182
704.298830 -1541.845798 1092.384720 150 152 160
717.215014 -1534.504128 1085.970211 31 29 41
705.766344 -1526.234055 1088.887691 24 25 33
689.208364 -1521.441364 1100.097466 66 61 77
1111.259556 -1761.585617 1242.726994 159 162 169
1107.878685 -1754.041290 1236.159420 51 46 63
1379.054928 -1683.716393 1096.442890 88 102 112
1210.282898 -1680.047989 1200.305080 37 41 53
1167.395020 -1910.082436 951.389599 133 121 165
1150.452328 -1900.665283 935.883236 27 21 100
1112.309742 -1905.811691 954.764175 206 198 201
1129.450703 -1900.888443 951.050949 30 20 88
1133.447933 -1897.122955 949.643898 22 14 90
1132.369614 -1892.603111 952.159023 154 149 164
1132.369614 -1892.603111 952.159023 154 149 164
1016.212654 -1881.094551 996.340847 212 197 195
1019.350433 -1870.216560 1000.376701 148 142 143
1011.437893 -1874.662971 1025.774860 200 101 63
1020.104504 -1865.476608 1012.070179 223 210 208
1018.041992 -1866.335106 1017.003632 246 233 229
1018.890953 -1866.577911 1017.680550 246 233 229
1027.026844 -1860.752487 1009.662914 207 197 197
1011.485291 -1869.659424 1024.433804 173 79 45
1023.139668 -1864.196587 1016.793633 249 234 229
1050.521946 -1853.731918 1004.269600 143 135 135
1023.668480 -1860.918808 1017.804718 109 29 1
1033.827019 -1850.044632 1014.089012 137 130 129
1045.124245 -1846.980095 1009.389496 241 224 217
1018.618679 -1851.690674 1032.605553 214 137 107
1006.803703 -1855.591583 1045.299816 139 51 13
999.697685 -1850.951767 1050.957775 129 41 3
648.988581 -1518.600845 608.690643 6 8 20
996.568775 -1845.639610 1046.877003 97 93 87
1006.383133 -1832.526970 1050.700855 103 102 102
1078.982830 -1814.879799 1022.758007 145 43 3
1078.982830 -1814.879799 1022.758007 145 43 3
1031.134224 -1824.714851 1041.316891 20 23 45
1006.878376 -1828.074837 1051.188946 43 46 45
1006.878376 -1828.074837 1051.188946 43 46 45
999.418163 -1828.298187 1052.116966 92 92 92
988.953590 -1831.331062 1058.594894 164 166 163
999.508381 -1825.053024 1052.403450 32 31 31
1008.864498 -1823.805046 1052.460003 24 28 28
974.582291 -1824.644089 1057.350445 41 34 35
974.582291 -1824.644089 1057.350445 41 34 35
990.024567 -1826.754379 1060.550880 129 134 133
1024.969578 -1810.185623 1040.623283 66 70 73
1029.671860 -1809.990120 1049.640179 86 99 107
1349.216747 -1820.947838 1051.630497 171 180 183
1383.265686 -1905.456161 1173.029327 35 50 63
1020.343208 -1809.573364 1052.428627 58 64 63
1365.527821 -1820.205688 1053.343868 148 161 163
1365.527821 -1820.205688 1053.343868 148 161 163
1354.460812 -1818.178368 1051.593494 164 175 175
1022.611904 -1798.471069 1042.497253 26 7 6
1022.611904 -1798.471069 1042.497253 26 7 6
1373.154259 -1824.495697 1062.736702 148 161 163
1025.087452 -1791.165352 1034.698200 143 152 163
1023.247623 -1782.650757 1037.979126 129 138 147
1024.412632 -1783.197403 1039.069176 129 138 147
937.677479 -1778.963470 1039.361286 100 103 108
935.792351 -1775.732613 1039.307976 234 229 230
954.853439 -1770.376015 1032.276630 140 148 160
952.496910 -1767.705536 1033.167362 96 67 51
955.068588 -1760.648346 1035.118294 18 10 6
1399.431038 -1827.843094 1104.783058 169 177 180
1396.420670 -1828.761864 1108.282757 61 65 64
947.368336 -1754.584503 1037.791157 19 9 9
920.874691 -1757.649803 1046.302414 81 90 103
1018.995857 -1759.899139 1046.264362 108 81 69
948.525524 -1750.841713 1041.894627 10 3 5
1236.169910 -1813.039207 1107.664204 197 207 213
1023.358822 -1755.951500 1047.473621 100 89 87
1234.556007 -1810.385132 1108.953094 17 18 25
927.279854 -1767.054939 1072.502327 50 20 19
1231.940079 -1809.974098 1109.667969 12 15 20
1228.272915 -1809.004974 1110.838509 7 8 12
924.059105 -1712.071800 1055.701351 88 68 52
924.816895 -1709.619141 1054.125977 71 67 66
1187.193871 -1776.854515 1134.685326 93 90 97
836.318684 -1684.203148 1060.645008 110 110 116
1311.682796 -1795.227242 1157.159328 10 17 26
832.154751 -1677.925873 1062.767887 38 39 49
830.243015 -1678.496933 1065.019035 112 111 121
1209.260178 -1756.446266 1137.008190 41 37 48
1494.583225 -1742.219162 1151.184845 115 127 137
1440.389442 -1833.668709 1288.947010 187 200 210
1355.326843 -1642.843628 1033.792400 115 127 137
1301.230145 -1608.628273 998.604107 115 127 137
1301.230145 -1608.628273 998.604107 115 127 137
1292.012691 -1604.344940 996.320057 115 127 137
1292.012691 -1604.344940 996.320057 115 127 137
1321.329880 -1712.558365 1183.423138 42 45 50
1047.406101 -1963.656807 878.765774 57 78 92
1067.596149 -1948.383904 887.163734 218 231 232
1086.795330 -1924.398804 867.496204 228 247 248
1091.004276 -1922.616768 868.002319 100 130 144
1054.109287 -1946.790695 913.819122 154 157 161
1101.301765 -1914.682388 876.451683 94 125 140
1067.107964 -1913.246536 923.252106 165 156 157
1263.290787 -1940.609550 1073.711014 200 200 203
1068.924332 -1910.664749 927.854633 245 239 237
1051.044083 -1852.865028 973.791313 64 73 82
1348.034477 -1812.905312 1019.524288 68 74 76
1065.438461 -1859.050179 1050.247955 136 139 147
1044.832516 -1849.446106 998.483276 246 234 230
1045.124912 -1842.936897 994.796467 112 38 4
1063.526821 -1834.905243 987.799454 115 39 6
1021.973419 -1858.839417 1020.110035 177 90 50
1040.412903 -1844.985008 1004.701424 245 225 226
1017.719746 -1862.739372 1027.058506 219 144 115
1027.989960 -1848.328018 1009.453678 133 126 128
1145.895004 -1666.591072 842.629528 167 183 190
1028.559780 -1833.683586 997.373962 66 74 83
1017.554951 -1855.717659 1038.280773 170 91 58
1012.133598 -1834.165573 1004.787636 171 154 153
1349.385262 -1827.385712 1113.532639 171 187 192
1261.237049 -1820.044708 1083.091354 36 35 41
1351.160049 -1823.130035 1116.329098 180 192 195
1256.678581 -1818.315697 1085.382175 214 224 225
1255.472469 -1817.612648 1087.985229 207 219 221
1258.570004 -1816.687012 1088.146019 33 30 36
1251.623821 -1816.055489 1088.206768 215 223 227
1031.121635 -1824.689674 1041.095829 20 16 35
1025.204468 -1827.277374 1044.701290 16 5 12
1254.027462 -1814.745712 1091.952991 41 41 47
1023.717403 -1803.792953 1012.145710 155 153 152
1025.365448 -1802.398682 1011.860371 85 89 93
1020.321751 -1804.730225 1016.224384 171 180 190
1025.318146 -1825.726700 1050.054550 50 53 64
1261.798382 -1814.070511 1098.989105 29 32 37
1022.970772 -1824.156189 1050.874424 113 132 139
1248.168564 -1714.990997 1030.500412 184 198 207
1387.942410 -1830.489349 1159.723854 180 192 195
1004.192066 -1830.379486 1056.488037 92 95 95
1025.241566 -1822.777557 1052.245903 111 132 138
1009.485531 -1828.423119 1057.297516 90 96 94
1012.668514 -1825.447845 1055.886078 17 20 20
1031.131363 -1815.582466 1050.142765 141 151 152
1019.952965 -1819.680595 1057.038403 46 51 50
1014.214516 -1818.283081 1056.850815 93 103 101
997.366142 -1818.640709 1060.513210 118 118 117
1024.497509 -1798.893738 1043.458843 20 7 4
1439.420891 -1748.210335 1077.797890 125 143 150
1031.499958 -1784.979248 1028.657627 99 105 115
1023.847198 -1795.081902 1042.096710 169 174 185
1023.847198 -1795.081902 1042.096710 169 174 185
1029.385948 -1783.083916 1031.131363 106 38 8
997.507858 -1802.425003 1064.058781 248 241 238
1455.820465 -1880.622101 1293.189526 88 103 116
1215.326023 -1807.924461 1133.487988 19 23 31
1211.920643 -1808.695412 1134.561443 172 184 192
1012.703514 -1788.121605 1059.181881 153 164 178
943.270397 -1778.643417 1036.090755 95 100 110
941.452217 -1779.423523 1037.465954 241 236 239
950.007915 -1767.178345 1036.194324 132 141 155
1463.930702 -1874.617386 1310.093307 5 8 16
1021.113682 -1756.185150 1046.525955 145 134 131
1021.113682 -1756.185150 1046.525955 145 134 131
1016.105080 -1755.426788 1050.413704 148 105 75
1204.353905 -1786.303711 1152.607632 172 184 196
1213.508701 -1780.787659 1150.462723 66 62 74
1217.097664 -1780.512238 1152.617550 66 62 74
1210.694313 -1781.789970 1153.901768 27 25 37
1242.986012 -1765.592003 1143.776608 89 85 94
1239.114189 -1761.190414 1149.259186 59 52 61
1341.346550 -1690.273666 1136.889458 43 38 35
1017.701817 -2009.013748 782.512569 122 152 165
1063.466454 -1993.998909 798.900986 27 37 45
1059.387493 -1993.018532 804.967117 123 166 183
1055.114365 -1992.734337 810.231972 81 107 122
1052.544403 -1992.074013 815.350819 188 207 214
1044.681168 -1978.263855 838.761520 128 108 66
1052.530289 -1973.023987 834.348869 54 68 73
1051.532173 -1971.524620 839.082241 139 131 101
1229.615593 -1945.000458 1076.981354 34 48 62
1261.277676 -1922.653770 1073.189259 92 87 90
1349.708462 -1883.876228 1132.068634 213 223 223
1352.104092 -1884.170151 1136.450291 213 223 223
1090.142632 -1913.841438 940.312290 89 74 158
1107.549191 -1898.346901 951.891613 60 60 63
1097.370720 -1900.600815 951.872444 32 24 60
1078.502274 -1906.315804 948.363972 240 235 236
1107.439041 -1896.243858 951.942253 101 110 118
1079.236221 -1904.082680 950.767422 231 228 232
1102.786255 -1893.305779 955.123711 73 75 96
1100.634861 -1893.871498 957.456684 147 136 206
1085.135651 -1899.204826 958.541584 134 134 134
1105.807209 -1886.702919 955.584240 28 17 92
1094.051933 -1888.108635 956.447220 48 33 62
1080.060291 -1895.762825 963.165665 238 173 95
1080.060291 -1895.762825 963.165665 238 173 95
1091.867924 -1888.732338 958.901310 48 40 51
1090.121651 -1887.920189 960.623360 187 173 177
1076.096630 -1891.723633 966.657734 254 247 242
1086.881638 -1884.158707 962.875557 51 41 43
1082.555771 -1881.160164 962.567616 249 237 236
1082.555771 -1881.160164 962.567616 249 237 236
1092.791557 -1875.519753 969.183254 32 21 93
1092.791557 -1875.519753 969.183254 32 21 93
1095.197678 -1871.587372 969.215965 137 144 158
1099.475861 -1864.940262 970.680046 132 140 152
1249.939823 -1850.735855 1080.192089 193 212 219
1339.021301 -1846.686745 1141.975117 35 46 64
1252.238655 -1847.225761 1079.366112 24 26 34
1255.483723 -1840.381241 1080.057430 35 39 48
868.116570 -1622.323227 440.387869 36 40 48
1068.784428 -1851.772308 969.397640 137 146 156
1423.213387 -1865.461349 1267.277527 46 54 61
1058.578110 -1842.896271 988.874435 122 132 142
1056.945038 -1835.364151 1004.260921 129 137 147
1028.682709 -1848.561859 1010.380840 139 125 130
1240.176296 -1812.064552 1098.155880 25 24 29
1234.398460 -1810.860443 1106.338215 13 15 20
1406.364155 -1739.604759 1104.550362 145 160 167
1070.252705 -1809.619331 1003.779507 149 62 24
1212.760735 -1807.521439 1099.079895 10 10 23
1215.600491 -1808.617783 1110.328865 14 13 25
1004.072571 -1850.167274 1042.919350 152 145 141
1030.586910 -1821.800804 1032.071400 89 100 112
1018.496227 -1803.994942 1003.910732 82 56 44
1011.348724 -1805.802536 1007.316971 101 69 48
1015.706253 -1802.254486 1008.390236 97 58 35
1011.519146 -1803.045273 1008.054733 167 176 182
1208.895683 -1804.668617 1136.889458 9 11 18
1190.470314 -1800.518990 1121.949577 161 171 181
1207.128811 -1792.919350 1150.294399 23 25 40
1205.195618 -1791.370392 1152.597713 172 181 191
1234.715080 -1771.240234 1145.230103 90 88 97
1235.437870 -1767.646790 1151.254749 126 119 120
1243.403435 -1760.549736 1150.573540 43 43 49
1240.981865 -1763.126373 1154.204082 48 42 54
1240.981865 -1763.126373 1154.204082 48 42 54
1223.906994 -1767.882538 1151.575756 16 15 28
1357.755947 -1699.662971 1138.838768 111 123 134
1357.755947 -1699.662971 1138.838768 111 123 134
1288.038540 -1777.243614 1220.769310 35 34 44
1274.804306 -1745.738792 1170.755577 97 92 100
1255.217648 -1744.276428 1158.590031 40 33 43
1297.196579 -1741.687393 1220.963192 20 16 23
1340.590382 -1967.452812 999.521160 181 177 174
1238.442898 -1975.618935 768.122625 123 127 126
1232.775307 -1978.987312 770.048618 158 157 156
1235.934830 -1974.671364 772.398376 137 140 140
1157.647896 -2023.206902 752.125978 120 122 137
1218.868923 -1983.823395 764.298677 160 164 162
1255.394745 -1962.022209 787.189054 202 208 208
1226.394749 -1974.727440 779.959059 209 210 208
1226.394749 -1974.727440 779.959059 209 210 208
1246.655369 -1960.696411 797.622824 160 161 161
1222.556782 -1973.179626 782.874250 175 177 177
1226.567078 -1971.070480 785.298920 150 150 150
1247.429943 -1958.740807 799.106741 225 228 229
1247.429943 -1958.740807 799.106741 225 228 229
1243.049431 -1960.647392 797.578096 226 231 231
1093.355179 -2041.396904 718.307543 136 177 192
1107.429600 -2034.330559 729.390383 75 64 68
1089.571667 -2039.340782 716.250801 64 88 107
1180.267429 -1991.598129 769.265270 81 92 101
1180.267429 -1991.598129 769.265270 81 92 101
1159.802914 -2002.315331 765.078115 192 191 193
1110.005093 -2023.507309 734.060431 125 85 64
1104.687023 -2025.799561 734.442997 134 178 195
1084.234715 -2036.052132 722.285318 50 65 69
1084.234715 -2036.052132 722.285318 50 65 69
1165.864182 -1992.865562 770.071888 100 111 123
1096.200752 -2026.544952 738.086414 98 118 139
1101.698208 -2016.804314 752.201796 80 68 69
1092.455196 -2015.141678 757.762098 163 203 217
1063.529205 -1988.802147 809.110260 62 90 106
1063.529205 -1988.802147 809.110260 62 90 106
1058.419037 -1992.102623 814.252853 83 111 127
1257.629204 -1931.903458 1064.409828 172 206 219
1232.310009 -1942.073250 1057.242775 62 78 93
1232.888412 -1938.894272 1073.445892 29 30 42
1495.634556 -1880.101776 1406.997299 173 172 169
1502.546787 -1885.901451 1424.263763 160 152 151
1228.618240 -1936.906433 1075.500965 25 27 42
1066.901779 -1966.902542 899.287319 136 154 161
1102.220249 -1933.106995 916.558266 231 236 234
1284.451103 -1848.285484 1034.694290 125 132 154
1118.485546 -1918.187714 931.220341 231 232 232
1126.414680 -1907.199669 935.676575 132 130 131
1097.147369 -1918.722343 930.750275 172 159 165
1091.483879 -1921.406937 928.775692 214 207 209
1104.083729 -1912.543297 932.042789 131 121 150
1099.916172 -1915.325165 931.880093 196 187 198
1099.043846 -1912.284851 932.730484 63 47 105
1097.059059 -1911.615753 934.542656 82 72 138
1091.681099 -1916.580772 937.787151 192 183 195
1450.518036 -1788.296127 1360.565090 189 200 209
1450.518036 -1788.296127 1360.565090 189 200 209
1099.350262 -1908.226776 936.951542 70 58 116
1124.152279 -1890.269470 939.776516 31 23 104
1222.809792 -1861.277390 1037.184525 200 218 223
1121.770668 -1889.151764 946.774387 163 160 162
1121.770668 -1889.151764 946.774387 163 160 162
1109.564877 -1898.205948 949.439526 108 117 126
1120.618153 -1886.849976 944.173527 53 45 109
1117.407799 -1889.914894 946.736526 31 27 97
1094.310379 -1902.980804 941.641331 40 29 81
1110.430336 -1896.054077 951.296997 24 16 21
1118.757343 -1887.280273 945.920277 174 168 182
1240.199661 -1853.700256 1063.620853 200 218 223
1101.910305 -1897.636604 953.678799 171 169 172
1076.320267 -1901.694107 931.684780 62 52 52
1251.615524 -1849.791145 1078.893661 33 35 45
1103.983212 -1888.915062 955.365086 126 126 136
1076.302052 -1900.573540 951.644897 250 238 236
1378.160286 -1745.698738 1073.181725 151 165 172
1074.513149 -1895.916557 954.638100 244 178 95
1074.513149 -1895.916557 954.638100 244 178 95
1075.603962 -1895.734024 956.489277 244 178 95
1385.201740 -1747.328758 1095.637608 151 165 172
1107.857323 -1867.190361 958.469486 35 25 101
1109.050179 -1862.520981 951.836872 134 141 160
1306.611347 -1799.171638 1102.831650 87 88 107
1083.492088 -1881.233406 963.701916 246 232 234
1312.341213 -1793.437958 1107.022572 50 50 65
1085.205364 -1886.343193 980.070019 199 189 195
1251.438999 -1819.596100 1082.819176 195 215 220
1229.126167 -1836.284828 1086.536121 188 206 213
1409.286404 -1720.903397 1106.136894 92 103 113
1409.286404 -1720.903397 1106.136894 92 103 113
1312.640572 -1788.736725 1110.726738 71 74 90
1271.221161 -1809.020042 1097.297668 115 108 112
1271.221161 -1809.020042 1097.297668 115 108 112
1249.328804 -1812.699699 1089.084911 45 45 51
1247.939014 -1812.080765 1092.651749 46 48 49
1436.634159 -1755.270958 1248.190022 151 165 172
1307.026768 -1774.765587 1125.149822 33 35 51
1232.954025 -1810.353088 1107.119656 34 33 45
1233.895111 -1806.932068 1113.246727 79 75 79
1287.888336 -1759.890366 1142.775536 115 121 140
1287.888336 -1759.890366 1142.775536 115 121 140
1211.368847 -1805.321312 1132.641697 28 31 40
1316.474152 -1716.946602 1134.818363 189 200 209
1316.474152 -1716.946602 1134.818363 189 200 209
1344.192505 -1700.755882 1139.748955 170 180 190
1310.506630 -1713.962173 1135.786438 189 199 208
1310.506630 -1713.962173 1135.786438 189 199 208
1253.157806 -2013.310432 666.136837 149 139 132
1264.259529 -2027.479172 849.792194 63 64 98
1219.115162 -2039.528656 674.029493 52 40 30
1293.664455 -1998.875427 904.051685 65 65 99
1196.373367 -2052.637291 665.611839 72 76 108
1217.519188 -2034.526253 686.387157 194 186 186
1176.724243 -2075.412560 704.239798 66 70 99
1182.216644 -2068.301773 694.811296 64 68 99
1191.742992 -2055.551720 677.608252 72 80 109
1126.342869 -2106.805611 594.653702 84 84 120
1247.847080 -2003.469849 701.206112 14 7 4
1212.406063 -2032.143021 692.233706 198 192 189
1214.692593 -2028.989029 693.574715 33 22 14
1178.238010 -2062.563324 714.323521 84 84 120
1168.864727 -2070.553207 732.303810 83 86 119
1210.206890 -2026.469421 705.113506 186 179 176
1118.387413 -2082.661819 572.953320 66 70 107
1180.913258 -2048.355484 716.644573 60 71 101
1242.830849 -1990.707779 729.842472 23 10 8
1164.928246 -2048.076820 689.494181 63 61 100
1234.700775 -2011.156464 856.731892 67 79 107
1205.216217 -2010.603905 729.187536 40 26 14
1167.110634 -2051.387405 756.478214 62 73 103
1167.110634 -2051.387405 756.478214 62 73 103
1201.074219 -2008.074570 739.715004 196 189 186
1232.589817 -1980.650139 756.856966 164 161 161
1248.405266 -1963.774300 763.644409 107 113 118
1204.733181 -2001.417542 746.441841 54 38 31
1210.414982 -1989.612389 755.788803 157 151 150
1171.573353 -2025.580406 761.079216 60 70 103
1171.573353 -2025.580406 761.079216 60 70 103
1221.699619 -1977.719116 768.717098 214 213 212
1112.707043 -2058.847046 659.688854 70 73 120
1166.133404 -2028.896523 775.774717 72 76 107
1162.392712 -2030.229187 781.144571 76 79 123
1195.347500 -1992.019272 757.927895 176 171 170
1177.732182 -2004.710197 761.013985 61 74 106
1174.658203 -2005.078888 767.601538 68 70 112
1122.150803 -2025.668907 755.887318 141 178 195
1105.317497 -2038.032722 758.615494 114 157 174
1105.317497 -2038.032722 758.615494 114 157 174
1105.115414 -2031.639099 756.511354 156 197 215
1104.808140 -2027.549171 763.854265 68 81 91
1109.802532 -2015.458870 772.257614 143 180 136
1376.131630 -1765.758896 1006.178379 148 165 173
1073.758030 -1988.462067 831.649685 129 170 186
1072.134399 -1989.303970 842.571640 143 188 205
1070.533943 -1987.999535 838.740540 91 116 131
1070.533943 -1987.999535 838.740540 91 116 131
1433.507729 -1807.656670 1368.337250 32 36 51
1240.856552 -1911.309814 1085.072041 43 37 45
1067.682266 -1987.005424 843.392658 196 215 223
1067.912769 -1986.831093 844.258595 196 215 223
1357.395172 -1776.587486 1081.262302 162 180 187
1391.721821 -1725.997353 1076.037121 112 127 136
1028.400803 -1950.341797 751.623964 134 126 124
1120.766544 -1913.049507 913.321495 162 169 179
1117.917347 -1915.881729 921.832180 110 118 120
1118.694210 -1913.379288 918.369007 50 43 43
1126.154900 -1900.346375 904.189205 160 146 183
1126.154900 -1900.346375 904.189205 160 146 183
1125.481606 -1901.526260 906.403542 153 138 185
1123.847389 -1903.746986 909.109402 163 154 199
1124.889088 -1899.895287 906.529999 75 63 133
1120.706177 -1907.844162 919.630623 48 39 116
1112.569046 -1916.003418 923.871708 199 198 198
1282.515335 -1810.910416 1076.983833 94 98 113
1099.667072 -1916.640854 911.591339 246 245 245
1416.595078 -1810.676384 1392.537785 32 36 51
1112.498569 -1902.082253 931.203175 133 130 142
