ply
            format ascii 1.0
            element vertex 1940
            property float x
            property float y
            property float z
            property uchar blue
            property uchar green
            property uchar red
            end_header
-221.343732 -315.095520 694.499111 53 64 71
-214.629745 -310.317755 722.678089 71 76 64
-214.629745 -310.317755 722.678089 71 76 64
-221.626425 -315.164208 695.497751 103 120 127
-216.515970 -311.464167 716.699791 68 73 76
-222.364831 -315.752888 695.305347 99 117 125
-233.353806 -325.043941 649.288845 150 139 136
-222.257185 -315.955925 696.378517 54 68 74
-223.738027 -316.826844 691.974401 103 122 131
-224.007225 -317.041588 694.023895 100 123 129
-217.954350 -312.628055 719.017601 68 78 83
-224.636459 -317.567968 692.845726 28 31 35
-224.365950 -317.305708 695.214367 60 73 79
-224.214983 -317.003417 696.758413 76 90 96
-225.801754 -318.759894 690.313482 108 130 137
-228.276134 -320.185304 682.616615 109 130 136
-219.377470 -313.968039 719.426680 72 84 91
-219.377470 -313.968039 719.426680 72 84 91
-219.377470 -313.968039 719.426680 72 84 91
-235.829592 -327.705312 651.572466 148 136 131
-220.063686 -315.206122 719.160748 112 135 141
-228.791857 -320.583200 684.920216 112 133 139
-236.202931 -327.848816 652.287817 209 197 190
-219.707751 -314.464378 722.714520 78 85 88
-232.917309 -330.846906 656.843662 248 245 241
-223.110175 -316.626310 712.895203 80 85 88
-230.930018 -322.505736 683.907938 61 69 73
-230.930018 -322.505736 683.907938 61 69 73
-238.707328 -329.507494 654.079437 135 129 125
-238.532495 -330.627060 652.783728 136 129 126
-228.296113 -320.584416 706.870127 54 73 79
-227.666998 -320.318055 711.845875 75 94 98
-227.370429 -320.431948 713.016415 131 157 160
-227.370429 -320.431948 713.016415 131 157 160
-233.145118 -324.270439 689.564943 72 84 92
-214.450407 -314.552021 761.409569 159 164 169
-228.226972 -321.300101 716.004229 148 172 177
-236.377716 -326.432633 686.812830 99 116 123
-236.377716 -326.432633 686.812830 99 116 123
-236.456990 -326.441717 687.655067 138 160 166
-234.505057 -324.962163 697.449493 94 110 115
-231.888032 -323.687506 706.735706 114 133 138
-231.953931 -322.473288 709.141207 118 131 135
-232.015085 -322.678781 710.161066 170 182 187
-234.652591 -325.387907 697.198868 94 110 115
-238.384080 -328.448486 682.295942 119 138 143
-238.384080 -328.448486 682.295942 119 138 143
-232.243562 -324.444246 708.757401 172 187 190
-168.657792 -422.498417 670.548487 91 111 119
-232.375288 -324.054170 710.834026 173 187 190
-233.294058 -325.055027 709.784889 174 188 192
-233.265114 -324.641252 710.591984 108 120 124
-233.265114 -324.641252 710.591984 108 120 124
-248.572755 -335.697174 652.899647 184 183 179
-216.866517 -320.321751 776.203251 127 133 138
-232.234502 -337.464285 713.993692 109 121 125
-238.578558 -327.905202 715.237236 109 120 124
-238.578558 -327.905202 715.237236 109 120 124
-240.071797 -331.344843 718.595314 178 191 194
-230.436301 -324.688125 761.886215 217 219 220
-241.597128 -333.072639 719.980288 181 192 196
-243.684053 -335.084915 722.034311 170 181 184
-227.167058 -335.310197 788.698339 235 235 236
-247.688270 -339.451742 725.108290 116 124 128
-247.688270 -339.451742 725.108290 116 124 128
-248.433256 -339.824224 725.812912 109 115 120
-249.668980 -341.616726 728.235912 176 187 190
-252.286005 -345.067286 731.209946 178 188 192
-255.454803 -348.615336 731.851816 178 190 192
-259.057665 -352.461863 736.040401 180 192 194
-262.217546 -356.687474 740.557289 102 108 113
-262.217546 -356.687474 740.557289 102 108 113
-262.213039 -357.957387 741.971588 173 183 190
-265.597582 -361.745024 744.465923 97 105 109
-267.299390 -363.945174 746.358395 100 108 115
-267.299390 -363.945174 746.358395 100 108 115
-267.063689 -364.176607 747.265100 168 176 183
-268.643475 -366.325450 747.955370 111 119 126
-223.136878 -319.113207 649.969292 170 170 171
-219.796753 -311.830807 692.688894 88 107 114
-220.793414 -313.443542 692.979479 90 110 117
-220.793414 -313.443542 692.979479 90 110 117
-220.460892 -313.159442 695.036459 86 105 109
-222.605944 -315.453696 687.791586 28 30 31
-216.194105 -310.445881 716.772556 59 68 72
-214.930248 -309.994197 723.168230 69 74 65
-223.581243 -316.679788 691.964436 99 117 127
-224.036407 -317.422152 690.253782 101 120 126
-224.036407 -317.422152 690.253782 101 120 126
-218.944645 -313.783956 718.167019 105 126 131
-218.924832 -314.116764 719.480753 57 72 77
-236.555505 -325.723696 662.578297 205 201 200
-226.457906 -319.323754 715.918541 132 159 167
-226.774502 -319.052911 719.409657 105 124 129
-243.416190 -326.240134 717.664719 179 191 195
-245.401573 -330.121303 720.268011 175 187 191
-253.656054 -346.338248 730.970621 185 192 197
-208.292413 -299.563336 716.051102 153 171 178
-216.231441 -303.596401 698.675013 150 168 175
-223.159122 -314.382386 689.003992 26 35 39
-223.146963 -314.702606 691.534138 96 116 122
-223.247194 -314.815497 692.253399 32 42 48
-223.682499 -316.327715 692.302847 97 118 123
-225.784564 -307.151294 698.944950 101 123 129
-211.401582 -310.428286 726.875496 56 68 74
-225.787997 -318.870759 689.185143 54 64 72
-225.787997 -318.870759 689.185143 54 64 72
-239.943075 -318.018007 663.544750 220 208 199
-243.772006 -318.100309 661.602640 219 207 201
-218.591976 -314.845920 718.634224 67 76 84
-215.890837 -313.573670 725.900698 94 112 119
-190.768695 -348.959780 744.396496 127 139 149
-238.687658 -341.375613 648.269701 144 138 137
-227.550459 -343.934584 683.010864 63 76 82
-245.550275 -321.033311 664.180851 169 166 166
-219.675779 -316.676164 725.214100 114 138 144
-245.558500 -321.276116 664.082909 169 166 166
-228.216243 -322.113442 701.461172 63 76 82
-230.942774 -305.755401 708.101130 58 76 83
-228.216243 -322.113442 701.461172 63 76 82
-226.221681 -320.697832 709.039497 58 70 78
-225.632310 -320.440888 711.058521 58 73 78
-228.232026 -321.624804 705.030775 134 157 162
-231.812620 -324.374413 694.247437 133 154 159
-226.020980 -320.042419 712.355757 129 154 160
-234.924173 -326.352096 686.423206 66 83 90
-227.582932 -321.391892 708.787107 80 95 101
-227.582932 -321.391892 708.787107 80 95 101
-233.772397 -325.462890 690.308332 133 156 162
-227.144313 -320.832372 711.016798 84 102 108
-236.988926 -327.534223 682.531261 48 52 57
-225.525761 -319.893050 717.167091 83 97 103
-236.673307 -327.023554 683.910656 36 42 45
-232.257295 -323.847771 698.021698 97 114 119
-232.257295 -323.847771 698.021698 97 114 119
-234.822273 -325.702620 690.288258 140 161 168
-236.674333 -327.029133 684.989262 132 160 165
-233.934832 -324.490428 694.536352 140 164 169
-227.125335 -320.873117 714.385557 143 165 170
-246.153402 -322.095942 670.776796 229 228 224
-236.335325 -326.656842 687.807846 61 76 82
-238.708544 -327.532649 683.929205 148 171 176
-233.540225 -322.824359 704.076767 154 181 185
-233.540225 -322.824359 704.076767 154 181 185
-251.423502 -326.430821 659.890175 148 132 125
-239.885712 -325.705934 687.451220 160 183 188
-246.511555 -322.353601 677.747488 218 218 213
-242.547989 -314.761400 720.406008 183 198 204
-243.568754 -314.076138 719.285583 180 192 198
-243.575287 -319.167638 721.434307 183 195 201
-245.930696 -329.351306 723.695183 186 203 206
-249.092865 -342.685485 726.813316 189 199 203
-250.724387 -343.475628 726.559925 185 196 200
-252.895951 -355.515337 729.679489 92 100 104
-252.895951 -355.515337 729.679489 92 100 104
-260.544658 -388.566995 738.995266 248 245 247
-261.000776 -387.947130 738.363886 121 116 118
-232.885599 -245.775223 669.960403 95 104 112
-238.236880 -250.696111 669.370508 15 15 15
-237.061286 -250.675464 673.615932 93 103 110
-244.158506 -258.568621 663.495350 96 107 115
-224.391222 -322.982407 673.117447 89 103 109
-185.714865 -326.647377 750.688887 179 192 200
-228.907824 -323.806334 666.047096 214 211 210
-218.502665 -311.143088 694.266081 147 165 172
-234.705400 -333.491588 651.201725 126 124 124
-221.595168 -318.932724 686.542416 60 74 81
-217.849326 -310.695052 699.658585 143 162 170
-215.613508 -306.574035 707.476902 149 167 174
-222.638893 -317.162848 691.052723 35 45 49
-222.198296 -319.959450 690.910625 89 104 112
-230.239677 -326.002884 670.953226 217 213 208
-215.594816 -308.711529 714.509773 66 77 84
-226.986766 -326.483583 680.905867 45 52 56
-227.287436 -325.978136 680.851078 78 83 87
-225.322509 -323.902822 687.213993 85 98 104
-226.296854 -313.950562 694.811726 99 121 127
-229.502821 -328.209925 680.458260 60 68 72
-222.192144 -160.388982 800.405407 122 141 146
-217.512155 -312.375498 718.966007 52 64 72
-218.836641 -312.904596 720.582628 95 118 126
-202.816606 -326.757121 749.055815 179 193 203
-202.816606 -326.757121 749.055815 179 193 203
-244.663644 -329.903579 657.673740 222 216 213
-231.051564 -325.620246 689.198208 62 78 84
-231.098795 -325.057745 691.446066 108 130 136
-231.098795 -325.057745 691.446066 108 130 136
-232.919431 -326.259637 687.997055 49 62 68
-231.958556 -325.396442 690.849924 68 83 91
-227.352595 -319.742441 705.164242 58 73 80
-231.249189 -323.768926 694.036245 77 92 98
-227.347875 -319.419622 706.098032 121 143 149
-228.399038 -320.647645 703.002882 119 139 145
-230.664968 -322.386909 697.094727 70 87 93
-225.420451 -316.627216 713.358927 55 69 77
-233.755755 -325.857115 688.981295 120 145 149
-234.136653 -326.159620 688.136578 68 80 88
-224.550462 -315.571117 716.793156 53 70 76
-224.550462 -315.571117 716.793156 53 70 76
-224.540520 -314.879322 718.031836 119 141 149
-229.370332 -320.026612 704.165983 67 80 86
-234.277177 -325.441003 689.737892 88 105 109
-237.046862 -328.619623 681.561184 35 39 42
-230.456305 -320.972085 701.845789 124 146 151
-232.402754 -322.763371 696.493626 122 141 146
-227.409124 -317.905593 710.887146 59 75 82
-230.246639 -320.448065 703.334093 127 149 155
-242.306066 -325.848770 673.982000 243 244 242
-226.974535 -316.714621 713.542795 79 94 100
-234.187436 -323.782659 693.610716 126 151 157
-238.175917 -328.232098 682.493639 135 162 166
-235.566306 -325.139046 690.511084 132 153 158
-238.437462 -323.052096 685.758257 39 43 49
-230.555987 -319.172668 706.603336 137 157 164
-235.077405 -324.672842 693.063784 131 152 158
-232.086754 -320.214057 702.890682 71 88 94
-235.078192 -323.724723 694.258165 81 97 103
-236.299443 -324.444771 691.513920 83 96 104
-236.299443 -324.444771 691.513920 83 96 104
-249.664021 -333.691955 656.454897 219 211 210
-226.553202 -314.431787 720.505953 76 90 94
-231.100607 -319.300580 707.020044 68 85 92
-237.364364 -325.795341 688.838863 142 164 169
-232.001996 -318.712401 706.799412 138 162 167
-236.913729 -323.884368 692.257643 134 155 161
-233.660555 -320.536184 701.987028 142 165 170
-228.255749 -314.958286 718.822908 90 110 117
-228.255749 -314.958286 718.822908 90 110 117
-239.924812 -327.218175 684.112501 143 163 168
-238.772726 -324.943471 688.643980 71 84 90
-233.771706 -320.338988 703.153992 146 165 170
-240.722203 -327.386522 682.829380 150 173 177
-232.041144 -319.737530 707.985497 136 164 169
-232.041144 -319.737530 707.985497 136 164 169
-232.739210 -318.340492 708.045673 53 66 72
-228.623748 -314.437008 720.311880 141 167 173
-233.590555 -318.357801 706.893873 148 172 176
-238.559437 -323.673940 692.044306 150 176 178
-241.255736 -326.894855 683.961535 159 179 184
-233.060193 -317.694211 709.309483 149 174 178
-231.507158 -316.249585 713.994408 76 91 94
-239.215279 -323.331261 691.611576 90 107 113
-227.136254 -311.628675 727.770615 103 117 121
-233.887768 -317.354083 709.198761 155 178 183
-225.182152 -307.404685 736.353588 154 171 178
-234.647369 -318.085575 707.142687 90 107 112
-242.989945 -324.889827 684.737396 170 191 193
-231.948161 -314.518476 717.433596 163 186 190
-236.181951 -318.109441 705.406475 165 190 192
-217.773366 -321.530128 745.353127 185 201 207
-217.773366 -321.530128 745.353127 185 201 207
-226.955962 -312.785721 731.142044 83 98 106
-226.955962 -312.785721 731.142044 83 98 106
-235.188246 -315.873194 710.524654 121 136 139
-231.869721 -312.063289 721.192169 166 189 191
-234.999299 -314.433408 712.338448 139 153 153
-230.342197 -310.744786 726.443911 168 188 193
-234.502673 -311.933947 717.696667 183 204 206
-232.920456 -310.528922 723.046684 147 164 167
-237.871170 -313.817859 709.655046 181 200 203
-232.657790 -308.559203 726.240206 190 210 212
-242.675924 -298.649788 722.638750 99 111 117
-242.675924 -298.649788 722.638750 99 111 117
-237.991118 -341.016293 701.989222 171 190 195
-243.153691 -298.456955 721.942949 165 180 186
-243.259716 -301.278710 726.819134 166 184 190
-245.541763 -302.152824 729.290771 177 189 194
-246.405911 -303.895736 731.906080 172 185 192
-247.418642 -305.365014 734.950876 183 196 204
-247.933531 -307.014370 735.811138 175 190 196
-249.394560 -308.674979 740.785694 182 193 200
-248.922658 -310.347962 743.958187 186 197 203
-250.152993 -311.317945 745.282078 92 102 106
-250.666928 -310.420752 745.088959 174 184 191
-250.085640 -312.508655 747.933245 184 195 202
-251.307607 -310.837650 747.294569 176 187 194
-251.823306 -312.128925 748.540926 185 195 202
-251.119685 -313.911486 750.959349 186 197 203
-252.835917 -313.760543 751.661301 179 191 195
-253.959227 -314.623165 755.587292 181 192 200
-253.132415 -316.954541 757.775307 196 205 211
-253.635502 -317.451596 759.455395 197 205 210
-254.297471 -318.424821 761.149073 204 211 218
-255.714345 -316.972780 761.715746 183 193 200
-254.728007 -318.800497 763.108110 197 206 213
-256.785035 -320.409036 767.010069 92 99 102
-257.404947 -323.219895 771.296406 216 222 227
-226.321959 -326.288056 670.515299 147 147 152
-225.627899 -327.702785 678.425217 36 49 57
-220.429683 -316.824055 693.950319 79 91 98
-223.441148 -322.948909 693.419504 42 56 64
-218.711138 -312.835002 714.682007 44 51 56
-225.454593 -306.383228 699.254131 94 114 120
-218.867731 -313.071299 723.129749 51 57 62
-230.700326 -326.611352 690.125084 47 61 68
-231.868029 -333.667684 691.091061 105 122 128
-230.508256 -328.159142 695.456362 105 122 128
-230.508256 -328.159142 695.456362 105 122 128
-233.050203 -326.369667 688.783312 102 121 127
-228.469610 -322.091079 702.409554 105 122 128
-231.882882 -325.036502 693.142748 103 123 130
-232.644367 -325.167894 691.866922 100 125 131
-225.636530 -318.423295 712.413549 50 67 73
-232.664704 -325.767374 692.527246 105 126 132
-229.590416 -322.339225 702.344847 98 116 123
-229.590416 -322.339225 702.344847 98 116 123
-235.102177 -327.140331 686.894798 109 133 139
-228.786159 -320.748591 706.297207 41 57 63
-211.975479 -335.983205 747.750759 176 189 197
-234.957433 -326.042938 688.940620 106 128 133
-237.234998 -328.194022 682.725143 127 147 152
-229.372597 -319.886947 706.391382 111 130 137
-233.109212 -323.839331 695.520592 63 76 83
-235.620022 -325.828362 688.989544 114 135 140
-226.944160 -317.369938 715.284538 110 133 139
-226.944160 -317.369938 715.284538 110 133 139
-236.798024 -326.803446 686.102438 63 79 86
-233.842921 -323.568678 695.200205 118 140 146
-231.226230 -330.522943 700.440788 41 57 63
-237.094855 -326.721382 686.935616 118 143 149
-237.094855 -326.721382 686.935616 118 143 149
-227.627349 -316.616726 716.399384 52 71 78
-238.924050 -327.051950 682.908154 25 29 34
-238.750172 -326.861715 684.081984 123 146 151
-236.353421 -324.495578 691.395664 65 78 84
-236.093664 -323.912239 692.426252 125 146 151
-231.576180 -319.736695 706.140852 118 142 146
-231.576180 -319.736695 706.140852 118 142 146
-227.733135 -315.194035 719.924593 53 66 72
-227.733135 -315.194035 719.924593 53 66 72
-236.123729 -323.396182 694.638300 127 149 154
-232.998347 -320.632291 704.152012 126 150 154
-232.823753 -319.256687 705.676842 70 81 88
-232.223129 -319.113827 707.738018 125 149 153
-231.977820 -318.903017 708.546257 124 148 153
-231.977820 -318.903017 708.546257 124 148 153
-233.643913 -319.591618 704.734087 127 151 156
-228.147149 -314.245510 722.136688 113 135 140
-236.819983 -322.444606 695.802689 133 158 162
-238.489318 -323.212481 691.125011 136 158 163
-232.522082 -318.234944 709.799719 59 74 77
-232.522082 -318.234944 709.799719 59 74 77
-233.734369 -318.453312 706.711960 134 158 162
-234.239817 -319.282699 705.214739 66 85 90
-250.534725 -411.652946 649.511480 127 148 154
-229.097295 -313.241220 722.185755 90 107 112
-231.917953 -316.893053 714.134216 140 159 164
-232.689571 -317.205262 712.034845 81 93 96
-236.130047 -319.000220 702.180338 142 162 166
-239.825535 -321.882367 691.212702 150 170 174
-239.162922 -320.713830 694.237804 152 172 175
-235.972285 -318.854594 703.814936 59 71 77
-240.475559 -322.138453 690.286160 84 102 105
-226.724911 -310.316420 732.587957 77 93 97
-230.213809 -313.583159 722.430849 136 154 158
-237.902904 -319.289041 699.382734 96 107 111
-237.902904 -319.289041 699.382734 96 107 111
-239.220238 -320.226383 695.421696 153 175 177
-231.892753 -314.377213 718.068552 84 104 107
-243.152785 -320.588565 684.694672 147 164 167
-243.152785 -320.588565 684.694672 147 164 167
-237.508368 -318.743062 701.659822 157 175 178
-240.914488 -320.491576 692.347479 159 182 184
-240.914488 -320.491576 692.347479 159 182 184
-231.195569 -311.046290 723.409367 112 128 131
-232.236814 -312.330079 720.568991 153 178 182
-233.025885 -313.374519 718.044662 92 106 110
-232.111478 -312.906098 721.058369 161 180 184
-235.196900 -314.022493 712.267780 99 109 112
-244.704270 -313.550186 685.590506 173 193 194
-247.388411 -318.196988 677.274799 226 220 212
-236.195755 -314.233088 711.109638 177 193 195
-244.160795 -315.152621 688.388777 183 201 202
-237.771797 -312.456584 709.814501 110 123 125
-238.279033 -307.894611 710.544109 195 210 212
-231.138730 -306.802750 731.887865 131 143 149
-231.138730 -306.802750 731.887865 131 143 149
-240.511465 -279.038644 722.666025 165 178 185
-241.827178 -284.477305 726.780891 169 184 190
-243.352699 -290.357828 729.672956 170 185 191
-244.640279 -290.500998 731.426620 81 93 99
-244.640279 -290.500998 731.426620 81 93 99
-245.225787 -290.175271 731.028652 165 178 184
-245.510435 -291.093373 731.314135 155 167 172
-245.076180 -295.256877 733.199215 165 179 187
-247.331214 -297.714400 735.595036 168 179 186
-247.675443 -299.011636 736.138582 155 166 173
-248.344636 -301.519299 737.076521 163 175 181
-250.622654 -309.559584 741.477489 166 175 183
-250.253916 -311.449003 742.052317 72 82 89
-250.253916 -311.449003 742.052317 72 82 89
-250.123501 -314.535403 742.418289 177 187 194
-251.417327 -319.775820 744.915009 183 196 202
-252.903152 -325.481224 746.863222 180 192 198
-254.289341 -323.516393 747.321224 183 195 201
-255.079150 -327.120399 748.681784 178 188 196
-259.496999 -344.101882 754.593277 184 192 199
-260.260892 -347.843409 755.588531 175 182 189
-217.735291 -314.537382 701.451683 139 152 161
-219.901609 -368.854165 732.779980 176 187 195
-219.901609 -368.854165 732.779980 176 187 195
-211.925960 -307.380652 728.598070 42 53 61
-227.015305 -317.980170 668.097448 223 218 218
-227.133608 -317.416239 668.060684 223 218 218
-219.131851 -314.842606 719.582939 72 95 101
-234.315872 -326.862073 665.180683 155 151 150
-229.159045 -319.981909 691.716814 43 58 65
-230.855465 -326.307249 689.260864 45 58 66
-231.460047 -324.584246 694.473934 98 121 127
-226.833725 -316.142201 719.514036 48 63 68
-234.302258 -325.865769 690.287495 99 123 128
-227.764463 -315.654254 719.773674 52 65 72
-235.330987 -326.653790 687.999582 44 56 65
-237.333989 -329.980183 680.321789 17 20 29
-236.880350 -328.681898 681.768751 9 11 21
-235.453629 -303.472233 685.773563 224 225 225
-235.596681 -325.832963 688.988018 108 132 138
-226.029181 -313.319135 732.001448 143 159 166
-228.768134 -314.692926 720.070744 117 142 148
-232.597113 -317.813325 708.375120 7 17 23
-232.199359 -348.631644 733.816767 130 144 153
-239.018798 -327.250099 682.594013 19 18 26
-239.018798 -327.250099 682.594013 19 18 26
-236.667490 -322.798061 692.668772 120 144 148
-233.436346 -317.540741 707.361555 124 149 153
-237.657261 -323.790312 690.829182 122 144 149
-242.268467 -321.227741 665.542221 221 216 215
-235.940218 -318.365502 702.545452 134 156 161
-230.702496 -309.101534 727.501678 77 90 93
-232.702947 -312.194324 718.752384 79 92 95
-243.301845 -323.717618 675.820827 224 225 225
-239.814639 -321.762180 691.068268 141 164 169
-232.169747 -308.202147 725.612402 169 188 190
-239.603972 -320.420790 692.793274 146 168 173
-244.833136 -327.488613 673.861885 224 225 225
-235.847044 -311.660576 713.920784 161 177 179
-236.670566 -311.831212 709.870863 168 188 191
-243.701863 -322.084570 683.153725 151 165 167
-244.353890 -321.205950 682.873344 36 39 45
-243.626714 -318.284464 687.235832 85 95 97
-236.017203 -248.396015 730.193281 94 105 109
-239.416838 -267.905855 733.087063 162 177 183
-239.505768 -259.746838 731.648207 157 172 178
-240.454984 -265.643859 732.691669 161 175 180
-241.383529 -269.584417 732.554531 157 169 175
-243.644667 -288.265681 735.351706 158 174 182
-242.978048 -277.459168 733.862782 156 169 176
-245.359993 -295.643997 735.438633 156 174 181
-244.993877 -286.412263 734.714127 160 171 179
-245.865965 -290.620327 734.819603 161 174 181
-247.636700 -308.016372 735.994053 169 183 189
-248.539424 -311.145473 736.399841 172 187 192
-249.386477 -306.934690 735.853624 148 159 165
-250.428009 -319.089794 736.558151 161 173 180
-249.842262 -308.790755 736.393452 168 180 186
-251.068163 -314.208794 736.378956 162 173 180
-253.655481 -326.075125 737.001705 156 167 174
-254.267406 -329.046893 737.236023 167 177 184
-258.996820 -358.351350 738.217449 177 188 194
-259.690928 -361.519480 738.337183 183 194 199
-258.537531 -344.394636 738.108635 169 179 188
-260.853696 -367.280483 738.851452 181 191 196
-261.237693 -368.578959 739.835835 183 194 201
-261.307764 -360.975051 738.614607 149 159 167
-261.467457 -361.735892 739.271069 181 189 196
-263.750696 -372.169042 740.484285 184 192 199
-264.427209 -383.627868 741.787863 184 193 200
-264.065886 -373.880649 740.529585 180 190 197
-264.569855 -380.083752 741.390419 78 85 90
-265.190101 -378.273821 740.609264 163 172 181
-265.182352 -378.709960 741.994619 161 171 177
-265.848660 -382.244444 741.992331 172 180 187
-257.069135 -344.844270 782.168913 179 188 194
-207.750869 -345.181298 735.663271 160 173 181
-234.510303 -319.476676 656.513739 125 118 119
-218.126178 -310.298586 725.588465 35 47 49
-231.906080 -326.426721 688.705969 92 111 118
-218.740940 -309.665585 728.240633 78 100 106
-226.866603 -320.027328 705.414820 39 54 62
-230.997086 -324.827528 693.821669 51 61 70
-233.083940 -326.881766 687.331009 96 116 123
-226.883030 -319.351768 706.558895 95 110 117
-225.617766 -318.069601 710.900307 39 52 60
-226.772833 -319.338989 707.275057 50 61 69
-232.081318 -325.978112 691.478872 91 111 117
-232.081318 -325.978112 691.478872 91 111 117
-232.916260 -326.236296 688.906670 95 113 120
-227.609301 -319.202495 706.829500 93 116 122
-227.609301 -319.202495 706.829500 93 116 122
-233.676147 -326.309013 688.898611 96 117 123
-232.298565 -325.090218 693.725443 46 60 68
-227.153778 -318.365574 710.950327 41 59 66
-232.219791 -324.404168 695.315218 54 68 75
-233.024120 -324.942231 693.277168 96 116 122
-233.304596 -324.880719 692.082214 95 113 120
-233.304596 -324.880719 692.082214 95 113 120
-229.957771 -321.145773 703.362942 95 114 121
-233.646321 -325.411582 692.370129 44 58 65
-233.206129 -324.940324 693.892956 43 57 63
-234.220243 -325.719547 691.028547 39 53 61
-230.868530 -321.884298 702.350950 35 50 57
-230.868530 -321.884298 702.350950 35 50 57
-237.781930 -329.591393 680.723190 103 120 124
-237.781930 -329.591393 680.723190 103 120 124
-230.303025 -320.725918 704.789495 98 116 123
-234.194684 -324.892640 692.020941 98 119 124
-234.194684 -324.892640 692.020941 98 119 124
-231.136084 -321.231341 702.139950 100 119 126
-235.155582 -326.212740 689.502954 45 58 64
-234.239292 -325.556397 692.865562 98 120 126
-231.020069 -321.575665 703.126526 100 116 123
-231.020069 -321.575665 703.126526 100 116 123
-230.684638 -320.491934 705.469704 46 59 66
-234.550643 -324.545312 692.713070 63 76 83
-226.622391 -314.984155 718.207169 101 122 128
-226.622391 -314.984155 718.207169 101 122 128
-237.654757 -328.346205 682.989979 41 53 59
-230.240273 -319.235563 706.846094 98 121 127
-226.460123 -315.246630 719.997787 44 58 66
-241.633606 -312.052917 653.950644 120 115 116
-226.934481 -314.891315 719.609261 107 125 132
-232.486677 -321.631312 701.812601 102 123 128
-237.821436 -327.835321 684.423256 48 63 69
-230.964565 -319.843388 707.037306 35 50 57
-230.964565 -319.843388 707.037306 35 50 57
-238.403916 -327.944875 683.023024 20 27 34
-238.991046 -328.683734 681.331778 26 35 43
-232.486868 -321.108484 703.243828 106 125 132
-232.486868 -321.108484 703.243828 106 125 132
-236.814189 -325.946522 688.867855 110 130 135
-236.814189 -325.946522 688.867855 110 130 135
-238.106585 -326.686120 685.925484 63 76 82
-233.099246 -320.857596 702.712011 34 45 50
-239.095569 -328.052926 682.934046 106 126 131
-234.793043 -322.382355 697.302771 59 72 80
-234.793043 -322.382355 697.302771 59 72 80
-227.803707 -313.801455 721.778345 39 53 59
-235.919666 -322.361350 694.382954 113 132 139
-240.408635 -305.301428 660.313082 212 193 188
-239.844418 -327.682376 682.265615 111 133 137
-239.285898 -326.891518 685.660458 64 79 84
-234.370589 -320.806193 702.450848 41 51 57
-235.917401 -322.271705 697.117186 55 69 76
-235.917401 -322.271705 697.117186 55 69 76
-240.718746 -327.745104 680.989933 117 141 147
-232.688141 -318.406105 708.185482 16 23 30
-236.869645 -323.371911 694.288731 59 75 81
-232.535338 -318.504429 709.953499 41 53 58
-229.987049 -315.014315 718.497038 52 68 73
-229.987049 -315.014315 718.497038 52 68 73
-236.374640 -322.283506 697.524309 118 138 142
-238.618731 -323.896313 689.493370 125 146 151
-233.502555 -318.004322 707.230043 119 141 146
-235.200381 -320.291376 703.000689 120 141 143
-233.025789 -317.090726 710.063219 125 143 149
-238.277483 -323.206949 692.716026 68 81 87
-234.791565 -318.476605 706.249523 126 147 150
-238.016200 -322.033596 695.046520 125 144 148
-238.016200 -322.033596 695.046520 125 144 148
-237.886119 -322.066665 696.213341 129 147 151
-237.886119 -322.066665 696.213341 129 147 151
-241.042376 -325.091171 684.982538 69 80 85
-236.026335 -318.861270 702.386332 128 147 150
-235.188675 -317.856956 705.947733 71 84 86
-231.398368 -313.033485 718.997812 78 92 96
-241.693020 -324.770641 684.934473 72 82 89
-236.499023 -318.221354 702.960491 85 91 96
-235.472298 -316.777849 707.542086 74 91 95
-235.472298 -316.777849 707.542086 74 91 95
-229.939938 -309.778333 727.651453 82 95 101
-230.407310 -310.150623 726.336193 140 161 166
-242.400908 -324.660492 685.156059 136 156 157
-236.947727 -318.015862 704.107094 48 55 60
-240.509009 -321.939540 691.448927 84 97 103
-240.509009 -321.939540 691.448927 84 97 103
-243.338108 -324.644923 681.617689 143 163 166
-241.919088 -322.729397 686.573553 81 89 92
-240.073872 -320.410490 693.335438 77 89 93
-242.679381 -324.117684 684.769583 74 87 90
-243.966055 -324.633002 681.061411 22 27 32
-243.966055 -324.633002 681.061411 22 27 32
-258.438110 -355.520535 641.425419 137 128 128
-239.394665 -318.489599 698.042345 149 167 170
-242.759824 -321.772671 686.580563 65 78 80
-234.899616 -312.537789 714.877987 159 172 176
-239.928699 -318.099570 696.939230 149 162 166
-238.005400 -315.961266 704.386234 64 75 77
-243.300962 -322.037554 685.669994 158 179 182
-244.525504 -322.223043 681.689548 155 174 180
-241.114783 -317.680764 694.818449 100 108 111
-238.653159 -314.902711 703.766632 158 177 178
-230.279350 -304.078984 733.242846 93 105 111
-240.993547 -317.046356 695.806074 166 185 186
-245.316935 -322.167397 681.348276 68 78 80
-242.645860 -317.224669 690.897274 94 101 104
-238.672876 -312.290978 705.229568 79 87 90
-233.444333 -304.828835 724.279690 167 177 179
-238.523531 -311.638403 707.718801 108 118 121
-238.523531 -311.638403 707.718801 108 118 121
-231.506538 -302.370811 732.771349 119 134 140
-243.659592 -316.703916 690.393543 90 98 101
-237.750340 -306.150579 711.346722 195 210 209
-244.140148 -315.145087 690.387821 104 112 114
-239.547729 -301.370716 702.853298 197 214 212
-252.741718 -311.893559 655.821466 182 170 168
-246.982336 -304.439831 680.573511 124 137 145
-247.213364 -304.989052 680.325413 124 137 145
-252.891302 -310.048056 669.781113 125 138 146
-253.805041 -312.264895 668.756533 125 138 146
-216.884613 -153.189170 721.439314 96 105 114
-237.801909 -259.596372 731.246614 161 177 184
-238.498545 -262.703776 731.457567 161 175 182
-241.386557 -279.206514 732.912874 170 185 188
-243.184876 -286.367297 733.232260 158 174 181
-241.917801 -275.508952 732.567501 77 88 94
-241.917801 -275.508952 732.567501 77 88 94
-241.151047 -268.641257 732.247639 153 168 173
-244.149828 -286.049247 733.364487 64 74 79
-244.149828 -286.049247 733.364487 64 74 79
-247.160602 -303.565717 734.234762 163 178 184
-244.407153 -283.754277 733.034325 166 179 185
-246.056223 -291.241717 733.723640 165 178 184
-246.918511 -295.509195 733.802700 146 157 162
-249.057078 -305.016327 734.179211 164 177 184
-255.171990 -339.831114 735.115290 173 186 192
-255.873251 -342.595506 735.046196 151 164 172
-257.959604 -352.592516 735.454035 174 185 192
-256.437635 -337.964439 735.127926 166 176 183
-257.831693 -344.157863 735.424805 172 183 191
-259.143305 -350.342655 735.108900 166 178 185
-264.522386 -382.339835 735.522413 172 182 190
-258.807302 -372.437429 757.747269 179 188 197
-286.387253 -298.289037 739.729929 132 141 150
-224.923229 -320.729446 677.517366 161 165 166
-225.954962 -322.044253 676.972008 161 165 166
-229.189277 -324.962115 671.006966 229 224 221
-230.424285 -327.924681 674.214935 161 165 166
-226.573300 -319.726825 698.965549 55 70 78
-237.153006 -329.460907 680.465317 12 11 20
-233.788228 -325.438023 689.861774 62 72 81
-232.925105 -324.090362 692.519712 100 114 121
-231.353140 -322.237182 697.054386 99 117 122
-235.807204 -326.650596 687.057257 98 120 126
-224.391198 -311.767602 712.039566 50 64 70
-237.615943 -328.254271 682.995081 26 32 40
-222.947645 -312.707305 718.112850 61 75 82
-238.668776 -328.668642 682.019615 109 128 133
-225.165415 -314.334846 715.100336 47 64 71
-231.359696 -320.663190 701.723146 65 77 85
-239.605808 -328.805923 681.756926 11 9 13
-237.070107 -326.150680 688.068008 51 60 67
-236.894131 -326.114440 688.735628 103 125 129
-235.484624 -324.487758 692.163992 107 125 131
-233.282232 -322.172737 698.104191 104 119 126
-233.282232 -322.172737 698.104191 104 119 126
-235.479474 -324.263263 692.817211 50 62 68
-235.479474 -324.263263 692.817211 50 62 68
-240.370178 -328.903842 680.969334 13 13 19
-236.434817 -324.928045 691.222811 54 63 70
-234.035015 -322.086883 696.987247 104 120 126
-235.519671 -323.747230 693.618584 110 127 132
-239.068890 -327.259159 685.035658 108 126 131
-236.267853 -324.371743 692.157269 105 124 129
-234.108758 -321.963596 698.124313 104 122 127
-237.715387 -325.126505 689.084911 111 131 134
-240.564156 -328.174090 683.080196 112 134 138
-238.708782 -325.229788 688.817596 114 130 133
-225.943947 -311.876702 721.976805 47 61 67
-225.943947 -311.876702 721.976805 47 61 67
-241.023088 -327.432632 683.453608 116 135 141
-241.023088 -327.432632 683.453608 116 135 141
-235.743737 -321.905112 697.315168 63 76 82
-233.827829 -319.696021 703.068876 41 50 57
-226.576257 -311.899853 721.348953 105 124 129
-236.743307 -322.488332 695.848179 119 136 142
-242.799854 -328.108191 680.527735 121 140 145
-234.347892 -319.576335 703.015280 54 62 69
-241.022539 -325.977612 685.597754 50 60 64
-242.761135 -327.697301 681.447649 19 17 23
-237.528491 -322.310495 695.584297 53 62 69
-237.528491 -322.310495 695.584297 53 62 69
-242.278934 -327.129865 683.104134 126 144 150
-241.688609 -326.077747 684.951830 121 136 139
-233.118963 -317.213130 707.697582 115 134 139
-234.483862 -318.565297 704.590464 46 55 62
-233.842802 -317.615294 706.319284 72 81 88
-228.830051 -312.698340 719.790125 55 71 77
-237.952137 -322.216702 696.121311 122 139 142
-242.064548 -326.032495 685.366678 52 61 66
-238.456607 -321.978688 694.938993 130 144 149
-235.294366 -318.792677 703.847456 120 139 142
-238.074541 -321.193027 696.487904 127 144 149
-236.623526 -319.914174 700.737095 120 140 143
-231.208038 -314.253211 715.136385 34 39 43
-232.700658 -315.808344 711.281395 49 55 60
-239.792871 -322.955799 692.345953 65 77 81
-242.522097 -326.066852 685.621929 125 138 142
-236.191821 -319.197202 702.234793 125 144 147
-244.045281 -326.960063 681.167698 28 31 36
-244.045281 -326.960063 681.167698 28 31 36
-227.092743 -309.544635 726.778316 109 125 131
-227.092743 -309.544635 726.778316 109 125 131
-239.089036 -321.341157 695.501518 76 86 93
-239.089036 -321.341157 695.501518 76 86 93
-238.894391 -321.240044 696.218395 133 149 153
-240.349793 -322.616601 692.457724 71 78 81
-235.157156 -317.341518 706.805277 130 145 149
-245.054531 -327.016902 679.846525 34 34 40
-241.317725 -323.043656 690.143251 139 150 154
-233.151078 -314.806128 712.422276 86 94 97
-232.585621 -314.378285 714.519882 44 52 55
-241.317773 -323.057032 691.309261 142 156 160
-236.960602 -318.618560 703.258228 137 154 157
-236.960602 -318.618560 703.258228 137 154 157
-235.485721 -316.826773 707.500029 72 81 87
-245.144701 -326.254272 680.988693 138 155 159
-237.148690 -317.952776 702.915335 71 81 86
-242.026591 -322.596145 690.065813 135 151 156
-230.149698 -310.610986 722.636938 58 73 78
-241.812134 -322.490335 691.098261 139 156 158
-243.755913 -323.950982 685.440063 59 66 70
-240.435481 -320.590448 695.364428 66 73 77
-242.219734 -322.220778 690.625525 73 83 86
-234.264874 -313.958955 713.079214 140 155 158
-234.264874 -313.958955 713.079214 140 155 158
-242.923856 -322.586727 689.110804 81 86 91
-233.835554 -313.339615 714.322424 145 157 159
-242.032647 -321.249032 691.712141 147 164 166
-240.550542 -319.437671 696.244240 151 167 170
-241.989732 -321.073651 692.729187 149 165 166
-243.119979 -322.295117 689.689636 153 167 170
-229.377580 -308.061481 727.547312 135 155 157
-245.629168 -324.252772 682.339621 24 24 28
-236.723065 -315.317440 707.600355 67 79 83
-246.170926 -324.296761 681.710005 152 165 167
-238.801575 -316.868758 703.145504 155 169 172
-240.811396 -318.425965 696.950960 87 94 97
-239.540243 -317.283463 700.974751 77 85 88
-243.635964 -321.124363 689.793062 161 179 178
-239.373851 -316.793919 701.814604 150 166 169
-242.839575 -320.323277 692.087936 89 95 98
-236.088037 -313.917375 711.733341 147 159 161
-242.971539 -319.846964 691.672325 156 173 174
-235.707688 -312.596297 712.967634 72 84 86
-243.187642 -319.586444 692.166328 91 100 103
-243.187642 -319.586444 692.166328 91 100 103
-237.960196 -314.484930 707.278061 72 82 84
-241.604280 -317.588568 697.270536 169 183 185
-232.379723 -307.417822 724.175358 135 146 149
-244.028282 -319.077134 691.231394 171 190 193
-237.222743 -311.472344 710.794210 110 114 115
-237.769413 -311.697888 709.193563 172 186 188
-231.246972 -305.277848 728.479052 91 103 106
-231.246972 -305.277848 728.479052 91 103 106
-239.120531 -312.107968 704.433012 159 171 173
-242.826915 -316.256762 695.964384 181 193 195
-243.694139 -317.030954 693.616581 111 117 118
-239.747906 -312.924266 705.463839 176 192 191
-240.837598 -313.409996 702.433062 83 93 94
-245.345736 -317.163801 688.694620 190 204 203
-244.893551 -316.192770 690.342808 189 204 203
-244.270444 -315.409565 694.531918 107 113 113
-240.116382 -308.914971 705.851650 195 208 208
-238.413572 -306.269169 709.926414 194 207 207
-239.787793 -308.474255 708.231497 194 207 207
-234.236908 -300.683689 725.341320 203 216 214
-235.971451 -290.921497 702.690506 124 138 147
-259.327173 -361.649776 738.956928 160 171 179
-253.635621 -331.615233 735.115719 168 181 185
-254.421091 -327.950573 734.943390 157 169 176
-245.866585 -294.840932 732.112312 152 167 173
-249.365163 -304.691815 733.210564 150 160 168
-241.260576 -272.929192 730.516005 158 173 179
-243.811202 -282.245016 731.648827 78 89 93
-240.213752 -267.740440 730.072737 159 174 180
-243.417144 -279.036880 730.769825 74 86 90
-244.886851 -283.646274 731.776571 150 162 167
-240.964961 -267.683077 730.071259 71 83 86
-242.242551 -270.237660 730.301046 165 177 182
-241.741705 -268.383503 730.223274 145 158 164
-241.391134 -266.527891 730.159903 144 159 166
-235.002804 -242.722487 728.250599 145 157 163
-230.797100 -324.771595 666.979456 220 214 211
-238.995504 -326.722288 659.066772 203 192 188
-236.832643 -328.998852 680.842113 29 31 40
-239.175344 -328.371668 683.123589 106 124 130
-237.413883 -326.078248 688.601255 107 124 130
-240.730596 -327.979231 683.766747 61 71 75
-237.572455 -324.333382 691.852665 110 129 134
-236.160612 -322.293639 694.996166 61 71 75
-230.634093 -317.595243 707.571316 106 120 126
-240.453053 -324.147296 689.945889 119 138 141
-239.105392 -323.131132 693.017530 120 137 140
-240.160942 -323.660684 691.001081 60 68 73
-244.538260 -327.178121 681.405210 110 124 127
-232.005095 -316.137218 708.458710 112 130 135
-239.680791 -322.716665 693.115902 126 142 145
-244.508362 -326.292253 682.105255 40 37 43
-245.042181 -326.337242 682.453156 136 153 156
-245.056081 -326.350403 682.438087 136 153 156
-244.274020 -325.465369 683.758831 70 81 85
-239.851880 -322.078133 694.262218 128 142 146
-239.883733 -321.191359 695.626354 129 146 149
-241.216254 -321.871972 692.887068 134 146 148
-237.160826 -318.482685 702.071238 133 147 149
-236.647916 -318.167996 703.518009 135 146 150
-246.286154 -325.443769 680.860329 28 26 31
-235.275674 -316.531467 707.636213 77 86 90
-223.366594 -307.199621 734.833717 131 144 152
-246.520805 -324.667645 680.851460 151 165 167
-246.656704 -324.809337 680.786037 151 165 167
-245.273900 -323.505354 684.261608 155 168 169
-241.538429 -320.732427 694.108677 145 159 161
-233.192706 -314.495707 714.565372 124 140 143
-240.782881 -319.781208 696.032286 144 158 161
-243.912482 -321.541095 689.527178 160 175 174
-242.657995 -320.223260 693.309212 93 97 100
-242.226124 -319.494176 695.111561 154 167 170
-242.923784 -319.613647 692.909765 161 178 179
-243.483877 -320.031905 691.880035 69 75 78
-242.937326 -319.467473 693.856239 155 168 170
-241.993237 -318.434501 695.917988 153 168 169
-245.053887 -319.970298 688.732815 85 85 86
-229.771686 -308.680367 726.757336 134 151 152
-240.070343 -316.046286 701.664305 163 174 174
-238.113093 -314.719748 707.092524 58 67 70
-244.691253 -319.377470 690.211582 88 96 96
-244.992924 -319.211674 689.577436 171 183 183
-240.011668 -315.966725 703.294563 75 80 81
-245.485830 -319.493389 688.640785 80 85 86
-245.485830 -319.493389 688.640785 80 85 86
-242.052960 -316.968179 697.360325 167 181 180
-241.769099 -317.765951 700.212383 163 174 174
-243.009973 -317.593646 695.083189 100 108 108
-237.265825 -312.930942 709.953976 162 174 175
-240.219235 -315.128231 702.917528 169 178 178
-240.219235 -315.128231 702.917528 169 178 178
-245.037365 -317.930174 690.922880 177 190 189
-245.934415 -317.973924 688.633394 99 103 104
-232.158256 -308.338332 725.313663 146 164 165
-240.331006 -314.151549 704.180336 169 180 182
-243.909001 -316.066265 694.325399 183 196 195
-232.841301 -308.136058 723.436022 131 142 140
-239.543843 -313.068509 706.708622 81 87 87
-239.543843 -313.068509 706.708622 81 87 87
-240.821242 -313.942814 703.384352 69 77 77
-246.064329 -316.919470 688.693380 101 106 107
-244.919086 -316.098547 692.916489 111 115 116
-243.683338 -314.060545 696.286631 96 100 100
-240.212011 -311.593056 706.005335 181 192 192
-245.664287 -314.562011 690.459204 114 117 118
-253.143454 -311.415339 659.414148 127 138 147
-232.811618 -301.285148 728.377390 192 204 204
-235.604453 -302.196693 722.934818 201 209 208
-235.489416 -301.281548 723.913717 123 129 128
-238.673878 -302.160668 712.298441 115 117 117
-246.369696 -304.502153 690.299129 125 139 145
-232.908750 -297.355032 731.464386 129 140 146
-256.078362 -351.125050 743.524027 140 151 159
-253.325462 -342.712140 741.014481 143 152 161
-240.370870 -296.314287 701.122284 121 135 141
-255.532050 -346.620274 742.218304 142 151 158
-253.518438 -340.773392 740.255737 145 156 162
-253.133035 -337.999487 739.697886 133 144 152
-253.795934 -337.381887 739.622068 68 77 81
-253.795934 -337.381887 739.622068 68 77 81
-252.661610 -334.140706 738.374424 153 166 172
-252.278662 -331.426644 737.858438 150 162 168
-252.838278 -329.572296 737.710762 68 76 78
-251.351333 -323.235774 735.803032 147 159 165
-250.083923 -318.333721 735.379314 150 164 170
-248.920512 -312.848520 734.496880 163 175 181
-251.273942 -314.165092 734.889412 156 166 173
-247.598124 -301.558471 732.822514 153 165 171
-250.022340 -306.993842 733.809376 158 167 176
-249.121332 -302.868962 733.365965 145 155 162
-248.868966 -301.024747 732.980633 144 156 160
-246.935987 -292.107534 732.475042 148 159 165
-243.173456 -278.475928 731.426144 83 94 98
-243.525767 -276.780844 731.415987 147 159 165
-239.418507 -265.031981 730.610847 149 164 170
-240.423250 -266.586709 730.949402 72 83 86
-218.284154 -185.194325 733.632183 80 93 101
-290.081644 -304.569244 742.567539 125 134 143
-225.723958 -312.248373 705.407143 83 90 93
-245.551062 -324.852753 681.691647 47 50 54
-244.051480 -323.753667 684.403896 128 143 145
-234.858489 -316.624713 706.290340 114 125 129
-241.794777 -320.258808 692.562771 85 91 92
-242.154956 -319.386768 694.495964 144 154 154
-241.876245 -319.008398 696.201849 83 90 93
-237.944674 -314.898133 706.585979 141 153 155
-247.550631 -320.583057 686.832952 97 103 102
-220.274997 -300.140786 732.934618 90 102 104
-246.620727 -319.505262 689.374304 165 172 172
-240.029025 -315.621257 704.012203 146 157 159
-240.764475 -315.673852 702.399588 151 161 163
-231.587720 -325.643754 769.794416 128 141 148
-246.775270 -318.628788 689.914036 102 108 108
-247.408676 -318.847990 688.838816 171 183 183
-248.806858 -319.218040 685.617399 178 189 187
-245.374560 -317.292476 693.650675 172 184 182
-247.479558 -318.400908 689.384079 116 122 121
-239.078307 -312.086701 709.382772 85 89 89
-249.207377 -317.286897 687.472916 193 198 197
-230.697608 -305.309439 729.174232 90 102 104
-240.538096 -306.295705 711.160660 130 134 134
-236.779904 -305.563855 729.189682 85 93 100
-235.276699 -300.822616 725.273371 137 141 141
-242.260671 -299.947667 745.301151 154 167 174
-242.657924 -297.349811 743.283272 158 169 178
-241.913271 -293.992043 740.154362 164 177 185
-243.120933 -290.944552 739.389658 168 181 189
-242.779875 -286.086321 735.981655 77 87 94
-243.359184 -286.486173 736.544991 159 171 178
-243.368387 -285.285211 735.966492 170 185 191
-242.631388 -280.920553 733.381748 91 102 108
-243.548679 -277.649784 731.772232 159 169 177
-261.387134 -325.562429 743.637609 57 66 71
-260.346603 -324.315596 743.918324 55 64 71
-233.903050 -325.960803 686.155748 60 70 77
-245.734453 -329.469109 680.411530 60 70 77
-243.199110 -326.293778 683.331728 98 109 113
-243.199110 -326.293778 683.331728 98 109 113
-250.523806 -334.068274 662.751198 243 234 231
-250.895143 -333.373570 663.441372 150 139 137
-224.763060 -310.126734 714.881420 70 78 81
-233.658361 -312.027621 714.931393 81 87 91
-253.777170 -329.139233 676.255846 120 132 134
-228.848362 -306.013107 728.693962 138 150 154
-228.103924 -305.630255 727.272511 105 117 119
-245.177555 -321.310544 691.856670 75 87 89
-238.380504 -314.530969 706.921530 70 78 81
-235.296416 -312.408900 710.184956 145 157 159
-250.703955 -324.892640 682.172871 67 73 76
-250.703955 -324.892640 682.172871 67 73 76
-248.794317 -322.290897 686.869955 148 156 156
-248.794317 -322.290897 686.869955 148 156 156
-239.491153 -314.496565 703.071833 138 144 145
-234.279537 -308.201766 716.784334 163 175 175
-236.521029 -316.355991 692.912483 101 102 104
-229.323888 -301.251507 730.847406 177 191 190
-237.822270 -311.050224 708.052444 168 180 178
-238.253593 -310.872126 707.030249 81 89 89
-238.253593 -310.872126 707.030249 81 89 89
-248.998356 -320.299721 685.936069 101 102 104
-248.110104 -319.377303 687.024832 164 175 175
-229.635143 -301.352072 726.417017 166 173 172
-244.180632 -315.609694 694.742203 83 89 88
-246.623373 -317.631078 688.933516 174 182 182
-244.351625 -315.255952 693.938541 181 189 188
-234.447479 -305.577135 715.054369 184 193 192
-249.350286 -318.917084 686.022091 172 180 179
-237.165833 -307.706261 708.344841 83 83 73
-244.249320 -314.518023 693.101597 96 101 100
-234.494948 -303.762627 716.803265 193 201 200
-237.334991 -306.926203 708.569431 181 183 177
-230.068803 -298.163652 727.752638 200 209 206
-220.009947 -302.406955 712.312746 83 83 73
-223.033690 -293.692327 728.490162 212 200 194
-235.952187 -304.052758 707.726669 101 93 80
-233.477449 -300.671697 713.777590 208 201 195
-234.413266 -301.398468 711.488438 214 206 199
-238.830137 -306.702280 697.540379 214 206 198
-223.591113 -288.269639 734.522533 112 126 131
-250.653648 -295.050931 733.403063 159 171 179
-250.023818 -293.427300 733.140469 157 172 178
-248.638892 -289.316654 732.948780 69 81 85
-248.442149 -286.716986 732.589817 170 181 188
-241.714549 -277.380848 730.617857 163 177 185
-241.519523 -275.664544 730.184317 175 189 195
-243.132687 -274.695349 730.159998 165 177 183
-241.279244 -274.414778 729.351664 179 193 199
-239.977717 -272.344446 729.349756 171 188 195
-237.291288 -267.537570 729.094315 169 185 191
-238.432789 -262.918711 727.773571 167 180 187
-237.168431 -260.655022 727.727270 172 184 190
-231.787133 -255.277658 726.901293 169 180 188
-229.323912 -251.700926 726.667118 167 179 186
-231.237197 -249.963093 726.528072 167 176 185
-228.377223 -246.744442 726.148796 91 101 108
-222.968554 -239.165974 725.473499 168 181 189
-214.084816 -225.289011 725.350857 172 185 192
-214.725423 -224.376416 725.478363 76 86 93
-212.248874 -221.919179 724.767208 168 179 187
-213.656116 -219.944525 725.176954 153 168 176
-210.849571 -218.969774 724.466228 164 176 184
-210.248613 -217.129397 725.319338 92 100 107
-291.032743 -353.037953 618.269014 48 78 118
-249.152684 -299.550629 737.865162 180 193 199
-250.146508 -296.602893 737.486935 165 176 180
-248.405051 -295.707703 736.039305 180 192 198
-246.065474 -286.015177 731.715393 190 202 205
-245.158219 -284.007978 730.851126 194 206 210
-244.934106 -279.161119 730.130386 95 106 113
-240.749073 -271.004844 727.414227 195 210 213
-241.618180 -270.743561 728.121233 120 132 136
-199.159956 -206.658077 726.652622 195 205 213
-228.361583 -395.064640 698.951626 4 6 6
-259.386730 -341.944289 756.041813 156 165 174
-259.201789 -340.069723 756.345654 101 110 119
-259.683228 -336.808228 753.584528 88 98 106
-259.683228 -336.808228 753.584528 88 98 106
-257.392931 -335.997319 754.096079 164 176 182
-225.274181 -387.507796 702.522373 45 83 131
-221.044660 -389.760518 706.644011 45 83 131
-241.995168 -384.197593 661.886740 36 73 123
-226.052189 -380.639172 705.244589 149 166 179
-256.511545 -329.616070 750.642776 166 177 184
-231.291986 -393.617892 655.625582 16 32 49
-257.513070 -325.740099 749.652338 154 162 171
-227.974939 -387.511563 666.337013 34 69 109
-228.978252 -376.304626 686.908913 29 56 93
-254.488206 -322.441435 747.707367 174 184 191
-256.540346 -320.730853 747.179270 160 171 175
-227.242565 -384.064174 665.410948 7 8 11
-223.502994 -384.359360 671.947718 112 121 125
-255.049992 -320.473313 745.801306 173 182 190
-222.972631 -380.530381 677.636385 6 6 6
-253.902745 -319.313550 746.236324 178 187 193
-219.166899 -381.198382 672.070360 53 66 72
-252.710938 -309.103251 743.358231 171 180 187
-228.258538 -361.452985 676.544380 145 159 165
-250.192118 -308.540058 742.114162 183 193 199
-255.322909 -333.154464 667.663574 120 133 140
-249.613905 -299.120235 739.770126 165 174 179
-249.281859 -295.131874 737.639093 178 190 197
-248.531055 -293.736768 737.572432 180 192 198
-249.287629 -340.605783 645.002604 180 180 183
-249.676442 -338.917375 644.883537 192 185 184
-247.153592 -330.079389 664.112043 202 194 185
-238.897753 -319.421077 696.985435 124 133 137
-246.299934 -290.254188 737.362099 171 182 186
-195.079446 -338.994670 737.858725 120 123 122
-238.660264 -310.803032 707.368183 174 179 178
-236.020827 -301.510239 726.822519 139 147 150
