ply
            format ascii 1.0
            element vertex 1940
            property float x
            property float y
            property float z
            property uchar blue
            property uchar green
            property uchar red
            end_header
-232.863307 -304.679275 702.734900 59 65 68
-220.020127 -348.139572 676.422548 236 228 221
-220.020127 -348.139572 676.422548 236 228 221
-232.260442 -328.701663 692.480659 118 127 130
-237.378502 -297.657633 710.440636 62 46 16
-230.061865 -314.233398 699.681377 103 114 116
-230.061865 -314.233398 699.681377 103 114 116
-234.232140 -306.939936 706.044960 103 114 118
-233.265400 -308.917880 705.004215 51 56 60
-233.265400 -308.917880 705.004215 51 56 60
-230.995798 -314.818096 701.554632 22 20 24
-252.635288 -274.396110 729.982805 47 52 57
-231.105113 -316.157627 701.532793 103 117 119
-230.486822 -319.261026 700.648069 102 117 120
-232.766342 -318.792629 703.167772 35 40 43
-250.540829 -285.651541 728.090191 54 55 56
-252.627921 -284.048033 730.651903 100 111 113
-260.486245 -264.603925 744.012403 45 52 58
-245.634866 -313.179207 714.303732 161 171 173
-252.359700 -285.946608 731.711721 63 62 59
-248.091197 -268.887305 739.393568 45 52 58
-255.687761 -281.471467 735.317183 99 108 109
-324.118710 -396.577263 761.036205 160 170 177
-308.087826 -135.365617 672.862816 117 118 122
-308.087826 -135.365617 672.862816 117 118 122
-306.470585 -138.924944 674.773073 185 185 189
-517.095280 -276.210713 626.525879 13 13 11
-303.064036 -152.353299 678.127861 197 198 202
-301.451564 -159.343946 679.410839 192 193 197
-492.856312 -295.827293 625.583506 138 148 155
-303.204656 -163.422275 681.323004 185 186 190
-299.197078 -180.011106 685.222912 195 197 201
-300.685930 -196.847522 688.318872 195 198 203
-513.589001 -347.691798 643.372297 55 68 76
-300.300336 -215.082002 693.714190 192 197 200
-518.737268 -346.705604 649.159670 26 32 39
-518.737268 -346.705604 649.159670 26 32 39
-297.853827 -228.193927 698.109770 124 129 132
-301.385546 -249.311566 705.726671 97 106 109
-237.428880 -302.327013 675.323772 101 108 111
-232.680464 -301.841855 676.733541 124 134 137
-71.326184 -332.260180 658.522987 79 90 94
-71.326184 -332.260180 658.522987 79 90 94
-231.364512 -298.474503 687.339020 56 64 68
-224.900246 -309.081292 692.672968 27 28 29
-213.738036 -227.607346 738.771772 165 164 168
-224.742770 -313.787937 692.448044 38 48 52
-520.239735 -406.418419 687.354517 57 69 78
-228.394127 -308.110261 697.408628 25 30 34
-228.394127 -308.110261 697.408628 25 30 34
-224.688721 -314.117050 695.261812 27 26 26
-245.094395 -276.049662 720.979404 72 83 85
-226.388121 -313.719487 697.519779 30 30 33
-226.388121 -313.719487 697.519779 30 30 33
-230.661321 -347.550845 678.546810 236 229 222
-226.122999 -312.529945 698.681688 107 118 121
-3.891220 -391.193438 621.454239 235 229 224
-233.856964 -298.508048 709.420156 66 52 24
-227.623010 -313.473082 699.875069 24 24 29
-230.647016 -309.649348 704.181242 58 64 68
-227.666092 -315.722275 700.482512 26 26 28
-246.996093 -275.938368 728.293037 52 58 63
-232.409096 -309.452224 706.244516 103 118 119
-231.125784 -311.510706 705.196190 58 66 70
-231.125784 -311.510706 705.196190 58 66 70
-218.297982 -314.023829 702.804804 103 118 119
-246.680903 -280.720067 728.290319 100 115 118
-517.479563 -426.137829 691.625786 87 97 105
-249.042535 -285.176468 729.521990 106 114 117
-262.175369 -314.294934 720.042181 154 165 169
-291.802597 -434.110880 654.718924 57 69 78
-291.802597 -434.110880 654.718924 57 69 78
-208.336759 -244.753218 755.740547 191 196 201
-349.210787 -326.903319 745.802832 112 123 127
-573.238230 -236.221385 590.326405 6 5 3
-573.087072 -232.243967 594.452381 81 86 88
-570.867443 -238.602424 593.925667 92 95 95
-570.867443 -238.602424 593.925667 92 95 95
-570.937586 -238.854694 596.829462 1 1 1
-567.407608 -228.790426 603.169012 58 63 67
-573.389673 -235.993385 598.729467 47 47 48
-584.869242 -264.029336 586.064053 15 20 11
-587.556648 -271.769428 587.620592 17 22 13
-583.559990 -267.522407 590.982819 100 112 117
-583.559990 -267.522407 590.982819 100 112 117
-585.031366 -271.440101 595.715284 21 25 15
-544.013643 -257.333469 608.903790 2 3 1
-582.414007 -283.255887 590.968370 30 37 35
-581.780720 -277.094793 598.087788 92 106 113
-582.235336 -283.921766 596.945953 218 209 206
-557.797956 -259.070182 613.864565 79 90 94
-573.192692 -262.693000 611.853123 23 28 19
-302.794743 -190.635049 688.290691 112 117 120
-298.663020 -198.755538 689.539766 105 111 115
-517.814112 -281.685591 634.425354 146 156 163
-510.813761 -283.986354 634.007168 146 156 163
-302.437449 -211.345434 693.217373 201 202 206
-298.848677 -210.287237 694.279242 195 200 204
-303.900337 -234.667325 702.140236 139 145 150
-303.900337 -234.667325 702.140236 139 145 150
-301.659656 -244.731498 705.766582 184 190 193
-352.508187 -313.578415 661.332417 159 164 167
-306.552529 -245.097995 706.146622 123 129 134
-239.072633 -320.039225 660.924006 242 236 226
-241.909885 -300.780916 674.153137 98 107 111
-234.493375 -303.019929 675.509262 72 80 82
-543.126535 -340.598750 647.924757 60 73 81
-262.259555 -267.472553 701.191139 185 194 198
-262.259555 -267.472553 701.191139 185 194 198
-232.497668 -297.975755 687.687731 65 73 77
-262.128043 -248.086834 725.524282 108 114 117
-224.031138 -309.446812 690.621090 101 115 120
-220.130920 -310.777211 691.919565 35 32 35
-223.945951 -313.999152 692.305994 55 59 64
-252.197552 -296.601129 704.591227 62 71 74
-225.490260 -308.968973 696.812582 26 28 32
-228.420162 -311.480999 697.087812 106 120 124
-224.880934 -315.371561 696.226025 110 123 126
-225.424194 -313.975477 697.338343 32 31 35
-228.181624 -307.641292 702.334404 67 72 75
-230.557442 -303.306484 707.721758 65 53 26
-230.557442 -303.306484 707.721758 65 53 26
-228.840280 -310.181522 703.785419 65 70 75
-232.727695 -347.896624 678.164291 236 229 222
-227.729130 -317.420435 700.292015 108 122 125
-229.424810 -312.021041 704.806757 61 66 71
-241.918302 -283.323765 725.776243 102 117 120
-119.270825 -363.649201 678.410721 81 67 40
-229.517746 -321.407580 702.006006 118 133 135
-245.609736 -277.158880 733.312941 52 58 63
-263.922358 -296.451497 721.368122 86 70 44
-240.014052 -339.325619 691.176748 140 149 149
-231.151128 -317.227054 707.369184 119 131 133
-234.060311 -335.917091 694.871807 91 102 106
-246.401262 -310.891724 715.190506 101 90 67
-251.129079 -288.229680 732.250357 116 127 131
-252.308154 -279.061437 739.577103 102 111 114
-324.383330 -309.654880 731.495857 122 131 135
-509.791470 -434.364796 689.517975 224 219 216
-505.241728 -439.944363 689.920616 138 145 149
-503.855181 -452.457666 696.847773 82 101 108
-503.855181 -452.457666 696.847773 82 101 108
-560.926008 -243.325043 569.869137 158 145 136
-534.623623 -219.585299 591.003704 79 88 92
-546.579742 -261.102104 571.655989 7 8 3
-554.607773 -259.315395 570.883608 7 8 3
-526.373529 -229.141140 599.533796 11 16 16
-546.817827 -242.759609 587.301493 7 5 4
-522.487450 -247.196865 597.183895 78 84 87
-522.958565 -247.568297 603.638411 2 3 1
-541.489172 -277.476764 594.112301 105 115 118
-520.163012 -256.618404 612.657118 50 47 44
-288.665605 -214.267302 689.501143 190 194 199
-243.726873 -322.653699 649.468517 222 209 201
-290.171862 -237.799215 699.639893 199 205 208
-502.290058 -292.175055 634.771824 147 156 164
-247.745585 -304.675913 667.514610 199 194 191
-226.568508 -335.783005 658.358049 242 225 216
-215.311813 -282.453847 703.528166 190 197 200
-265.968704 -248.537517 720.281458 200 204 205
-256.641245 -246.236563 727.071428 197 196 198
-251.819682 -270.651102 715.056372 104 118 124
-226.403284 -308.290124 695.178032 104 116 122
-224.444389 -313.448501 692.515802 29 30 35
-226.753902 -310.044861 698.066616 25 30 34
-226.753902 -310.044861 698.066616 25 30 34
-249.881792 -297.451115 704.466105 63 72 75
-232.647586 -294.381547 710.489273 99 83 46
-225.775194 -311.156368 700.273609 103 118 124
-228.329682 -310.233688 703.745317 62 68 70
-228.329682 -310.233688 703.745317 62 68 70
-228.425264 -313.034272 702.247667 104 120 123
-238.524652 -339.982700 684.051704 230 219 211
-518.077278 -345.865273 648.407221 63 76 84
-236.563754 -284.776592 726.328182 103 116 119
-236.563754 -284.776592 726.328182 103 116 119
-229.548955 -318.602920 703.359985 107 123 125
-236.793780 -282.413006 729.105139 99 113 119
-231.803799 -323.946357 700.811148 30 35 37
-235.943103 -286.337471 727.876234 55 59 64
-230.659389 -318.768406 704.914713 66 76 80
-232.420278 -324.699020 702.278948 80 86 89
-234.188938 -321.363521 704.626131 117 132 135
-234.188938 -321.363521 704.626131 117 132 135
-237.631464 -295.369554 724.055147 106 120 123
-237.631464 -295.369554 724.055147 106 120 123
-242.234349 -274.464703 739.620447 82 89 92
-238.538146 -292.966771 726.649714 104 111 114
-240.390134 -288.016963 731.588173 102 114 121
-245.197463 -286.648107 734.971046 100 84 48
-257.747579 -312.987041 714.087772 117 124 126
-247.421789 -300.188589 725.199127 94 99 101
-251.222587 -321.279740 709.721088 163 174 178
-249.215055 -291.765451 732.639742 90 94 95
-239.352584 -308.385944 722.447872 174 185 189
-311.432719 -300.867939 724.364042 125 132 136
-311.432719 -300.867939 724.364042 125 132 136
-316.119671 -305.487609 727.133465 113 121 125
-316.873932 -310.552835 728.972340 119 128 132
-325.614309 -335.288620 739.519119 122 132 136
-325.614309 -335.288620 739.519119 122 132 136
-334.914756 -352.884102 747.878361 117 126 132
-241.315198 -326.402736 774.825191 192 202 206
-241.315198 -326.402736 774.825191 192 202 206
-237.788701 -327.917051 780.000067 188 198 204
-338.768458 -361.400747 751.791716 129 138 145
-338.768458 -361.400747 751.791716 129 138 145
-276.161051 -459.208250 675.901079 64 76 86
-276.161051 -459.208250 675.901079 64 76 86
-516.570902 -430.475187 708.780718 63 72 76
-508.876753 -248.712635 567.994308 182 171 167
-159.549201 -282.367039 681.167316 187 198 206
-146.863592 -293.903399 681.250381 187 198 206
-515.026140 -275.164819 590.646029 112 125 126
-515.026140 -275.164819 590.646029 112 125 126
-528.358984 -283.218551 594.933653 130 148 155
-534.684372 -292.407537 592.667389 131 154 165
-535.196686 -289.963794 595.399666 116 138 149
-537.751579 -296.722937 599.249077 234 230 230
-255.803466 -270.730400 700.455618 186 198 204
-255.192089 -271.008945 700.693178 186 198 204
-233.446383 -305.343485 695.152760 120 141 149
-248.426771 -256.582308 730.203581 86 94 104
-248.798347 -297.923088 704.634571 119 139 147
-229.734588 -309.753132 703.471518 77 94 101
-228.142929 -318.147612 699.992323 119 142 150
-228.142929 -318.147612 699.992323 119 142 150
-228.967071 -314.385176 703.331566 86 104 112
-228.849435 -328.582168 699.431944 62 69 80
-228.849435 -328.582168 699.431944 62 69 80
-235.919070 -290.707016 727.082157 118 139 148
-238.013458 -273.828840 739.672375 61 72 80
-235.019755 -296.563983 724.038792 122 143 150
-237.390137 -289.351869 731.785107 117 140 149
-438.363266 -120.784390 544.853401 22 22 22
-455.363035 -200.014424 469.826317 95 88 83
-439.990520 -228.993583 488.916540 32 25 22
-451.330137 -227.251935 486.018372 132 122 112
-182.363522 -245.468974 751.147985 199 198 200
-427.381134 -219.727898 564.487743 15 11 10
-419.191551 -225.364399 566.519642 15 11 10
-440.092707 -260.673356 498.710871 119 113 106
-435.977936 -263.206959 500.076056 119 113 106
-420.947647 -217.158604 581.836224 37 33 32
-431.433773 -224.161577 566.315269 97 90 78
-431.433773 -224.161577 566.315269 97 90 78
-424.731207 -224.915481 586.442947 71 86 97
-424.064493 -242.653632 569.341278 19 12 12
-424.064493 -242.653632 569.341278 19 12 12
-428.046322 -236.705065 573.539972 128 137 141
-226.311135 -274.931121 730.141449 83 98 105
-429.601574 -237.531495 577.146244 72 69 65
-232.982898 -288.589740 710.181665 92 109 117
-427.330875 -242.423153 575.780201 116 131 139
-244.169450 -309.988713 669.917965 227 225 221
-427.724361 -239.902878 580.000877 122 128 134
-233.850741 -271.205378 735.032940 65 75 85
-431.865788 -239.894009 577.437973 72 67 64
-432.292891 -287.738180 513.943386 145 139 128
-426.594591 -239.021254 586.521721 37 37 37
-427.760029 -244.541645 578.376627 69 65 65
-427.760029 -244.541645 578.376627 69 65 65
-426.869917 -244.092321 580.678701 111 121 126
-231.109357 -309.052587 690.564585 61 69 76
-429.082966 -239.894915 586.373281 92 102 105
-431.098318 -246.106648 576.248550 93 106 111
-230.787182 -309.501147 692.290211 118 145 151
-430.184603 -246.526527 577.737188 105 117 121
-428.755808 -239.310622 589.209461 51 56 59
-233.271313 -284.122324 725.562382 80 89 99
-426.314306 -240.377736 592.472935 55 64 68
-433.132458 -246.827221 577.513361 54 66 68
-434.309626 -249.001050 573.404932 21 17 16
-434.309626 -249.001050 573.404932 21 17 16
-427.406216 -243.715882 587.851810 92 100 100
-433.865929 -249.653244 573.379993 21 17 16
-433.865929 -249.653244 573.379993 21 17 16
-433.043337 -248.500586 576.387501 93 106 112
-427.983093 -294.088864 519.398880 41 36 35
-427.983093 -294.088864 519.398880 41 36 35
-426.625824 -240.886235 594.973230 83 99 107
-432.678986 -247.748995 581.630087 101 109 112
-235.817242 -287.114263 725.204420 112 137 147
-428.277063 -243.906498 592.283344 94 107 116
-241.560817 -323.497391 669.540215 170 167 163
-231.389880 -312.288761 697.710371 120 138 147
-231.036735 -312.807798 697.545528 125 143 152
-231.507444 -308.882475 702.945423 89 92 106
-430.272341 -241.432810 598.617029 28 25 24
-235.781217 -290.889859 727.221441 117 141 150
-247.175813 -298.517942 705.192995 117 111 76
-230.959630 -316.348267 699.608994 118 141 151
-236.190987 -295.665908 724.288273 120 143 149
-237.104249 -286.288261 736.630583 121 140 141
-237.773943 -288.844275 732.326889 118 139 151
-235.891080 -292.429900 729.342413 94 91 75
-235.891080 -292.429900 729.342413 94 91 75
-432.827377 -247.605276 597.211361 46 40 39
-231.287766 -307.290506 715.083456 96 84 56
-236.048913 -297.699785 725.328541 87 91 99
-236.048913 -297.699785 725.328541 87 91 99
-234.051681 -314.019656 706.225586 94 106 114
-240.499210 -288.103819 736.455107 124 109 65
-239.293218 -293.878388 730.447769 125 148 156
-233.545423 -319.850063 700.415516 129 154 160
-239.301252 -336.480689 673.544550 197 190 187
-240.262437 -296.664214 728.852797 100 108 113
-240.262437 -296.664214 728.852797 100 108 113
-233.459234 -320.050764 704.387999 133 154 162
-435.798264 -254.223919 599.989557 26 24 23
-243.726254 -296.545720 729.741573 143 161 169
-242.822862 -307.759523 716.336775 104 94 65
-237.466240 -319.774246 704.764891 136 157 163
-245.693970 -295.434594 732.171154 141 168 173
-245.693970 -295.434594 732.171154 141 168 173
-237.500119 -321.028328 703.794956 54 63 70
-239.892745 -317.300916 707.509518 103 119 127
-247.426724 -299.199343 726.027298 113 121 126
-246.249056 -297.765994 729.616213 148 174 179
-247.291136 -293.552256 734.666634 117 126 132
-239.114809 -321.685219 703.300047 138 165 169
-241.358042 -319.545221 705.000257 139 160 166
-254.152369 -285.586524 741.847801 106 118 126
-243.433022 -315.460181 709.852505 138 123 76
-241.319060 -322.377944 702.524710 71 78 83
-438.458157 -311.537075 526.890659 44 41 39
-452.048016 -260.089517 591.773701 20 16 15
-448.579597 -255.142808 602.392673 99 113 119
-245.378304 -330.140615 695.087528 112 120 128
-466.961956 -278.343868 579.318762 116 114 114
-452.347612 -272.257352 614.248896 94 105 113
-463.677645 -275.794935 602.520180 28 30 24
-457.804346 -274.554634 612.490416 28 24 19
-468.510818 -279.041386 597.938204 27 29 23
-461.567211 -279.252768 607.460785 17 17 17
-459.147406 -280.745649 607.878447 17 17 17
-460.626602 -278.437924 609.992313 95 109 112
-466.548872 -296.574903 585.418129 26 30 19
-489.773798 -284.372377 614.552450 46 50 40
-487.265110 -285.938811 614.927721 46 50 40
-486.316013 -311.058545 598.430300 49 55 44
-486.316013 -311.058545 598.430300 49 55 44
-345.893669 -298.493671 744.775057 196 209 217
-261.174297 -156.942582 660.810184 111 123 127
-232.892942 -326.673365 658.020782 161 160 158
-102.015972 -514.933443 673.450613 87 103 109
-236.449528 -295.760822 724.078321 93 107 115
-233.006597 -318.220282 698.812342 91 111 117
-233.773136 -317.674565 701.723146 97 118 124
-236.318517 -314.747453 706.950855 63 76 82
-235.402036 -319.585156 702.537680 95 115 121
-122.218001 -509.943581 670.431137 103 89 48
-240.542078 -330.017805 695.664978 61 67 71
-220.252562 -310.956955 697.796106 127 139 143
-222.363663 -312.033987 699.606371 129 141 145
-226.151824 -313.833976 698.388958 159 174 177
-225.858712 -313.026047 702.275372 132 144 148
-228.651309 -316.606617 692.758417 70 84 90
-222.121406 -309.180593 724.054956 176 188 192
-233.226490 -321.776128 677.309084 197 196 192
-229.307461 -316.575217 697.307205 41 53 59
-236.464882 -326.850891 661.943150 229 218 212
-229.825997 -316.755199 697.857809 95 109 116
-223.685741 -310.466671 725.245285 69 81 88
-237.811971 -327.408743 661.429930 138 127 126
-231.344175 -317.033219 698.675442 88 108 115
-229.935193 -316.139698 704.740906 55 68 76
-225.276208 -311.456251 725.750113 89 110 116
-224.304605 -310.781455 730.316401 52 66 72
-225.157428 -311.413074 727.735806 54 63 70
-231.654096 -317.560601 700.785112 86 108 116
-225.968552 -312.019706 726.277494 88 106 113
-226.625562 -312.554002 724.292517 61 65 69
-245.584345 -339.491224 633.484411 9 10 10
-233.219528 -318.876004 699.418688 26 32 38
-227.032495 -312.759686 727.301407 89 105 110
-225.722146 -311.542845 733.868790 77 71 40
-232.849383 -318.425679 703.742981 90 112 117
-233.798671 -318.986821 700.223875 96 114 121
-227.516818 -312.928486 729.200506 56 61 56
-233.776069 -319.110203 702.128744 93 113 121
-231.682038 -317.527223 711.298513 66 57 37
-227.243161 -312.616348 731.777716 84 102 112
-233.850336 -318.955994 705.518675 59 72 80
-234.947801 -319.825912 701.363134 28 27 32
-225.794363 -311.999702 741.179419 43 55 61
-234.365129 -319.148850 706.491899 98 116 122
-226.659989 -312.170815 741.698170 37 49 55
-235.773540 -320.175529 703.723764 33 34 39
-229.719496 -314.794254 730.861521 90 109 116
-230.199504 -316.012096 728.636742 62 71 76
-230.199504 -316.012096 728.636742 62 71 76
-230.917883 -315.608072 726.866007 91 114 120
-235.356045 -319.855022 707.715988 57 67 76
-235.881472 -320.267463 706.232262 53 64 71
-229.488993 -314.567757 735.227871 71 76 64
-229.488993 -314.567757 735.227871 71 76 64
-236.188531 -320.296001 707.250309 103 120 127
-231.330228 -315.878606 729.061747 68 73 76
-236.960578 -320.871425 707.045317 99 117 125
-247.226691 -332.001257 659.975576 150 139 136
-236.901975 -321.012759 708.149529 54 68 74
-238.319230 -322.049308 703.619003 103 122 131
-238.654447 -322.168088 705.714941 100 123 129
-232.881355 -316.946793 731.424618 68 78 83
-239.288664 -322.725368 704.501772 28 31 35
-239.055943 -322.379637 706.929636 60 73 79
-238.923311 -322.018909 708.511782 76 90 96
-240.470028 -323.984075 701.898909 108 130 137
-242.827511 -325.689101 693.993950 109 130 136
-234.406924 -318.224645 731.832886 72 84 91
-234.406924 -318.224645 731.832886 72 84 91
-234.406924 -318.224645 731.832886 72 84 91
-249.974489 -334.394932 662.271214 148 136 131
-235.170436 -319.447899 731.558275 112 135 141
-243.419552 -325.989461 696.342516 112 133 139
-250.370860 -334.505129 662.993479 209 197 190
-234.836769 -318.598008 735.210323 78 85 88
-247.411704 -337.364435 667.691660 248 245 241
-238.185525 -321.006656 725.083351 80 85 88
-245.661521 -327.878499 695.286465 61 69 73
-245.661521 -327.878499 695.286465 61 69 73
-253.045177 -335.972786 664.785624 135 129 125
-252.915025 -337.129903 663.476181 136 129 126
-243.478656 -325.086904 718.838406 54 73 79
-242.948604 -324.643874 723.954535 75 94 98
-242.696452 -324.700642 725.164843 131 157 160
-242.696452 -324.700642 725.164843 131 157 160
-248.157859 -329.303432 701.052380 72 84 92
-230.152845 -317.844558 775.112963 159 164 169
-243.674588 -325.441217 728.225708 148 172 177
-251.472807 -331.464219 698.200321 99 116 123
-251.472807 -331.464219 698.200321 99 116 123
-251.549149 -331.481218 699.057627 138 160 166
-249.826360 -329.525566 709.120512 94 110 115
-247.295284 -328.054762 718.668604 114 133 138
-247.340512 -326.750708 721.127510 118 131 135
-247.440934 -326.911902 722.175455 170 182 187
-249.928904 -330.073309 708.853626 94 110 115
-253.463554 -333.653402 693.558836 119 138 143
-253.463554 -333.653402 693.558836 119 138 143
-247.797871 -328.634286 720.753479 172 187 190
-191.207588 -426.414108 683.288050 91 111 119
-247.936773 -328.193855 722.877264 173 187 190
-248.908067 -329.189157 721.794415 174 188 192
-248.853230 -328.779435 722.616863 108 120 124
-248.853230 -328.779435 722.616863 108 120 124
-263.201523 -341.993284 663.467360 184 183 179
-233.104038 -323.318911 790.360975 127 133 138
-249.079442 -340.858030 726.304245 109 121 125
-254.446149 -331.820822 727.313995 109 120 124
-254.446149 -331.820822 727.313995 109 120 124
-256.283021 -335.026312 730.775833 178 191 194
-246.982551 -327.383471 775.461340 217 219 220
-257.956624 -336.663342 732.188034 181 192 196
-260.222483 -338.556480 734.280586 170 181 184
-244.518805 -337.945795 803.196335 235 235 236
-264.602137 -342.697096 737.413406 116 124 128
-264.602137 -342.697096 737.413406 116 124 128
-265.376234 -343.049097 738.125658 109 115 120
-266.790724 -344.723892 740.614271 176 187 190
-269.720030 -347.992492 743.663979 178 188 192
-273.162460 -351.414442 744.305468 178 190 192
-277.097583 -355.082726 748.585606 180 192 194
-280.650306 -359.091711 753.225565 102 108 113
-280.650306 -359.091711 753.225565 102 108 113
-280.783677 -360.286641 754.701996 173 183 190
-284.482718 -363.928008 757.249594 97 105 109
-286.376381 -366.038251 759.192324 100 108 115
-286.376381 -366.038251 759.192324 100 108 115
-286.171746 -366.254711 760.133553 168 176 183
-287.931204 -368.326116 760.842848 111 119 126
-237.056661 -325.609612 660.972214 170 170 171
-234.182906 -316.910076 704.439735 88 107 114
-235.228062 -318.607473 704.699516 90 110 117
-235.228062 -318.607473 704.699516 90 110 117
-234.924984 -318.248630 706.807947 86 105 109
-237.007999 -320.855546 699.358749 28 30 31
-231.045437 -314.582705 729.224968 59 68 72
-229.921818 -313.822222 735.857153 69 74 65
-238.128018 -321.935821 703.606844 99 117 127
-238.563871 -322.788596 701.841116 101 120 126
-238.563871 -322.788596 701.841116 101 120 126
-233.993602 -317.881703 730.617857 105 126 131
-234.016609 -318.174601 731.970215 57 72 77
-251.212168 -331.194258 673.633146 205 201 200
-241.838574 -323.243451 728.251314 132 159 167
-242.312288 -322.613740 731.911135 105 124 129
-259.864593 -328.487921 730.215931 179 191 195
-262.037802 -332.463384 732.826090 175 187 191
-271.119285 -348.958874 743.586349 185 192 197
-221.773815 -305.715585 726.263952 153 171 178
-229.961133 -304.596710 711.032534 150 168 175
-237.121630 -320.847321 699.457264 26 35 39
-237.246633 -320.965195 702.184772 96 116 122
-237.375140 -321.268463 702.835369 32 42 48
-237.922001 -322.658658 703.118324 97 118 123
-240.235686 -311.095190 709.633875 101 123 129
-225.986862 -317.617249 737.851381 56 68 74
-240.212154 -324.649954 700.381279 54 64 72
-240.212154 -324.649954 700.381279 54 64 72
-256.182957 -308.578920 679.045534 220 208 199
-260.114455 -310.826683 675.780296 219 207 201
-233.536530 -321.121216 730.089474 67 76 84
-230.856633 -320.734477 736.960125 94 112 119
-206.432533 -374.613285 749.902153 127 139 149
-252.332950 -356.989384 656.196880 144 138 137
-244.936824 -330.372143 707.232571 63 76 82
-262.309408 -314.088511 678.703785 169 166 166
-235.152483 -321.596956 737.658262 114 138 144
-262.289047 -314.619803 678.515387 169 166 166
-243.697429 -325.588727 714.364004 63 76 82
-244.212961 -329.486847 708.416128 58 76 83
-243.697429 -325.588727 714.364004 63 76 82
-241.798258 -324.155474 722.079325 58 70 78
-241.225290 -324.022603 724.083519 58 73 78
-243.911457 -324.326301 718.350506 134 157 162
-247.523355 -326.545525 707.652569 133 154 159
-241.732860 -323.007560 725.649834 129 154 160
-250.784826 -327.533960 700.090361 66 83 90
-243.360662 -324.039435 722.242832 80 95 101
-243.360662 -324.039435 722.242832 80 95 101
-249.618244 -326.906037 703.948069 133 156 162
-242.964220 -323.361373 724.540520 84 102 108
-253.072977 -327.518916 696.628094 48 52 57
-241.439438 -322.325993 730.866385 83 97 103
-252.736092 -327.200294 697.922182 36 42 45
-248.229861 -325.093365 711.897659 97 114 119
-248.229861 -325.093365 711.897659 97 114 119
-250.865698 -326.278281 704.304790 140 161 168
-252.807426 -326.977348 699.154663 132 160 165
-250.016356 -325.029778 708.613873 140 164 169
-243.143177 -322.768164 728.334427 143 165 170
-263.128114 -316.367269 685.314178 229 228 224
-252.526426 -326.657915 702.031612 61 76 82
-255.185533 -326.036763 698.652744 148 171 176
-250.046396 -321.923804 718.998671 154 181 185
-250.046396 -321.923804 718.998671 154 181 185
-269.107294 -318.663096 674.819231 148 132 125
-256.744409 -322.394681 702.836418 160 183 188
-263.780069 -316.822577 692.616320 218 218 213
-261.904383 -299.489665 741.725349 183 198 204
-263.133669 -297.505426 741.038418 180 192 198
-263.246846 -304.632878 743.080473 183 195 201
-266.460323 -315.519023 746.643925 186 203 206
-270.841527 -329.364371 751.733589 189 199 203
-272.918534 -328.859234 752.259827 185 196 200
-276.095486 -341.772723 757.055283 92 100 104
-276.095486 -341.772723 757.055283 92 100 104
-285.685086 -382.278609 767.193794 248 245 247
-286.047506 -382.005620 766.123962 121 116 118
-239.499402 -161.733770 692.305183 95 104 112
-246.689963 -166.803753 692.522812 15 15 15
-245.477748 -169.777811 696.995306 93 103 110
-254.524302 -173.701715 687.189913 96 107 115
-237.414765 -315.926456 689.381313 89 103 109
-201.909781 -346.676993 758.347607 179 192 200
-242.343330 -315.693951 681.974459 214 211 210
-231.736898 -309.472132 707.662678 147 165 172
-248.485875 -319.927812 669.298506 126 124 124
-234.894276 -314.711332 702.012062 60 74 81
-231.414366 -310.915065 712.462234 143 162 170
-229.008698 -306.067204 720.279837 149 167 174
-236.464143 -315.254712 705.389357 35 45 49
-236.126637 -318.971062 705.450296 89 104 112
-244.280362 -319.440699 687.154198 217 213 208
-229.644966 -310.871649 726.787710 66 77 84
-241.313314 -324.564600 696.298361 45 52 56
-241.617727 -323.788738 696.229315 78 83 87
-239.711475 -323.435211 701.950312 85 98 104
-240.470552 -309.624434 709.567690 99 121 127
-244.308043 -327.098322 695.701647 60 68 72
-249.445915 -348.211908 700.193024 122 141 146
-232.444191 -317.825651 730.388355 52 64 72
-234.169626 -319.959068 731.261158 95 118 126
-220.207930 -347.768164 755.219460 179 193 203
-220.207930 -347.768164 755.219460 179 193 203
-260.388255 -314.016509 676.033163 222 216 213
-246.507311 -326.795340 703.365993 62 78 84
-246.678448 -326.911712 705.314398 108 130 136
-246.678448 -326.911712 705.314398 108 130 136
-248.598170 -327.312303 702.178431 49 62 68
-247.635889 -327.168202 704.745102 68 83 91
-243.017173 -324.268913 717.532253 58 73 80
-246.936870 -326.068139 707.562065 77 92 98
-243.059564 -324.210930 718.307924 121 143 149
-244.108319 -324.825978 715.578938 119 139 145
-246.375751 -325.093484 710.331202 70 87 93
-241.196442 -322.578478 724.782181 55 69 77
-249.582195 -327.066183 703.018761 120 145 149
-249.972129 -327.046418 702.310181 68 80 88
-240.395021 -322.268128 727.772522 53 70 76
-240.395021 -322.268128 727.772522 53 70 76
-240.416837 -321.660757 728.861284 119 141 149
-245.229816 -324.323392 716.550064 67 80 86
-250.183916 -326.598167 703.725290 88 105 109
-253.072858 -328.457665 696.134949 35 39 42
-246.363878 -324.897838 714.444876 124 146 151
-248.318267 -325.360560 709.731627 122 141 146
-243.336320 -323.616314 722.500610 59 75 82
-246.182680 -324.591279 715.795183 127 149 155
-258.288479 -316.372633 690.914869 243 244 242
-242.948151 -322.831035 724.819136 79 94 100
-250.210595 -325.605726 707.168579 126 151 157
-254.351711 -327.569318 697.199726 135 162 166
-251.669192 -326.364660 704.375744 132 153 158
-254.476953 -320.479226 700.391626 39 43 49
-246.661472 -324.025536 718.570995 137 157 164
-251.261497 -326.992464 706.502485 131 152 158
-248.195982 -324.004865 715.349770 71 88 94
-251.265979 -325.944567 707.606602 81 97 103
-252.508736 -325.609279 705.275440 83 96 104
-252.508736 -325.609279 705.275440 83 96 104
-266.487002 -318.035102 675.165272 219 211 210
-242.770648 -321.773100 730.902529 76 90 94
-247.299242 -324.290180 718.931627 68 85 92
-253.649950 -326.614308 702.825356 142 164 169
-248.243546 -323.221922 718.764782 138 162 167
-253.211308 -325.033760 705.915260 134 155 161
-249.927759 -324.143147 714.472866 142 165 170
-244.582462 -321.993923 729.347706 90 110 117
-244.582462 -321.993923 729.347706 90 110 117
-256.375098 -326.613355 698.586941 143 163 168
-255.165935 -324.897933 702.743578 71 84 90
-250.116420 -324.374318 715.438366 146 165 170
-257.210231 -326.027513 697.534466 150 173 177
-248.448944 -325.421715 719.628096 136 164 169
-248.448944 -325.421715 719.628096 136 164 169
-249.099422 -322.861338 719.933033 53 66 72
-245.064712 -321.942806 730.505323 141 167 173
-249.998808 -322.691298 718.785954 148 172 176
-255.040431 -324.433875 705.728531 150 176 178
-257.860446 -325.907016 698.448086 159 179 184
-249.493122 -322.388124 721.007776 149 174 178
-247.980595 -322.320223 724.957895 76 91 94
-255.738473 -323.724842 705.326653 90 107 113
-243.679810 -320.055056 737.143230 103 117 121
-250.357842 -321.414781 721.084881 155 178 183
-241.616273 -314.782310 745.666790 154 171 178
-251.158929 -322.109604 719.077635 90 107 112
-259.741688 -322.666955 699.284363 170 191 193
-248.586392 -321.312380 727.754593 163 186 190
-252.784657 -321.596074 717.450428 165 190 192
-235.566640 -340.744472 750.962162 185 201 207
-235.566640 -340.744472 750.962162 185 201 207
-243.976188 -325.131297 738.695383 83 98 106
-243.976188 -325.131297 738.695383 83 98 106
-251.799750 -319.816399 722.140646 121 136 139
-248.524785 -318.529129 731.281567 166 189 191
-251.672292 -319.429255 723.222685 139 153 153
-247.066426 -318.389893 735.852480 168 188 193
-251.207519 -316.787624 728.335094 183 204 206
-249.703622 -317.057991 732.780886 147 164 167
-254.486918 -314.125347 722.415257 181 200 203
-249.409866 -314.419675 736.005735 190 210 212
-259.593344 -294.883442 734.503841 99 111 117
-259.593344 -294.883442 734.503841 99 111 117
-255.213165 -340.656257 720.510340 171 190 195
-260.068893 -293.869591 734.105444 165 180 186
-260.649610 -301.768613 737.257862 166 184 190
-263.369441 -304.626417 738.847971 177 189 194
-264.553165 -308.993220 740.472698 172 185 192
-265.889025 -313.133287 742.392206 183 196 204
-266.560698 -315.661478 743.080187 175 190 196
-268.457961 -321.653366 745.942640 182 193 200
-268.161488 -325.900507 747.982883 186 197 203
-269.575310 -328.081870 748.706675 92 102 106
-270.080137 -326.900792 748.490334 174 184 191
-269.659853 -331.236148 750.391769 184 195 202
-270.869374 -329.052901 749.705601 176 187 194
-271.512485 -331.311440 750.560713 185 195 202
-270.935583 -335.266495 751.987743 186 197 203
-272.760534 -335.578918 752.274227 179 191 195
-274.099398 -339.217401 754.478979 181 192 200
-273.398781 -343.338156 755.897856 196 205 211
-273.994231 -345.169783 756.723785 197 205 210
-274.765038 -347.419572 757.644892 204 211 218
-276.185274 -346.327591 757.660675 183 193 200
-275.278974 -349.190092 758.646917 197 206 213
-277.537107 -353.712678 760.556936 92 99 102
-278.360415 -360.069442 762.554502 216 222 227
-240.275908 -321.353459 686.266279 147 147 152
-239.809060 -324.113536 694.295931 36 49 57
-234.779692 -317.724538 707.175255 79 91 98
-238.056850 -323.022103 707.775164 42 56 64
-233.730745 -317.944479 725.996923 44 51 56
-240.913081 -311.596107 709.339905 94 114 120
-234.151769 -319.341993 734.007788 51 57 62
-246.170807 -326.750278 704.733086 47 61 68
-250.509524 -345.994020 700.906801 105 122 128
-248.554659 -339.329362 705.241728 105 122 128
-248.554659 -339.329362 705.241728 105 122 128
-248.738241 -326.456237 703.307056 102 121 127
-244.136167 -325.004482 715.575647 105 122 128
-247.612357 -326.155758 707.200766 103 123 130
-248.386121 -325.962591 706.036949 100 125 131
-241.337037 -323.293924 724.421787 50 67 73
-248.446250 -326.669669 706.750822 105 126 132
-245.371938 -325.300360 715.506554 98 116 123
-245.371938 -325.300360 715.506554 98 116 123
-250.955963 -326.891541 701.573753 109 133 139
-244.607234 -324.537706 718.966484 41 57 63
-228.261185 -345.081758 759.945965 176 189 197
-250.852561 -326.299572 703.334427 106 128 133
-253.175259 -327.026558 697.745562 127 147 152
-245.246315 -323.828602 718.873930 111 130 137
-249.018908 -325.539327 709.226990 63 76 83
-251.583695 -326.147079 703.323364 114 135 140
-242.831278 -322.853541 726.889801 110 133 139
-242.831278 -322.853541 726.889801 110 133 139
-252.800298 -326.498103 700.713730 63 79 86
-249.807167 -325.248218 708.863544 118 140 146
-247.173214 -332.346606 715.137577 41 57 63
-253.158927 -326.623631 701.476479 118 143 149
-253.158927 -326.623631 701.476479 118 143 149
-243.622994 -322.496414 727.720165 52 71 78
-255.029655 -326.058340 697.695684 25 29 34
-254.881358 -326.162052 698.770285 123 146 151
-252.464271 -325.497007 705.332613 65 78 84
-252.193952 -325.114274 706.236267 125 146 151
-247.657108 -323.826456 718.503761 118 142 146
-247.657108 -323.826456 718.503761 118 142 146
-243.827844 -321.802878 730.743456 53 66 72
-243.827844 -321.802878 730.743456 53 66 72
-252.308416 -325.161672 708.199406 127 149 154
-249.160814 -324.357080 716.742373 126 150 154
-249.001193 -323.391795 717.934275 70 81 88
-248.420382 -323.655105 719.830942 125 149 153
-248.191261 -323.665857 720.523214 124 148 153
-248.191261 -323.665857 720.523214 124 148 153
-249.859571 -323.512745 717.106819 127 151 156
-244.349098 -321.416235 732.567692 113 135 140
-253.044963 -324.323773 709.221745 133 158 162
-254.763556 -324.263954 704.844427 136 158 163
-248.768902 -323.121476 721.652794 59 74 77
-248.768902 -323.121476 721.652794 59 74 77
-250.017190 -322.914958 718.724442 134 158 162
-250.505877 -323.289371 717.513037 66 85 90
-270.999241 -411.833191 673.561478 127 148 154
-245.340252 -320.476842 732.452965 90 107 112
-248.237634 -322.698855 725.444937 140 159 164
-249.022484 -322.680306 723.507357 81 93 96
-252.481914 -322.612858 714.539433 142 162 166
-256.195807 -323.044896 704.701900 150 170 174
-255.530906 -322.510648 707.400084 152 172 175
-252.343702 -322.719955 716.077375 59 71 77
-256.879306 -323.084927 703.866053 84 102 105
-243.002748 -319.194961 741.718245 77 93 97
-246.544576 -320.831776 732.721710 136 154 158
-254.301667 -322.256136 711.991596 96 107 111
-254.301667 -322.256136 711.991596 96 107 111
-255.631399 -322.354412 708.407974 153 175 177
-248.272872 -321.034551 728.696156 84 104 107
-259.449434 -319.697595 698.634529 147 164 167
-259.449434 -319.697595 698.634529 147 164 167
-253.938437 -322.220588 714.024544 157 175 178
-257.359099 -321.848679 705.601501 159 182 184
-257.359099 -321.848679 705.601501 159 182 184
-247.657299 -319.048619 733.003378 112 128 131
-248.659039 -319.519854 730.701637 153 178 182
-249.461961 -320.101953 728.503656 92 106 110
-248.547482 -320.118761 731.253576 161 180 184
-251.704836 -320.012236 723.074532 99 109 112
-261.195898 -314.276528 697.953176 173 193 194
-263.635278 -314.764810 691.575146 226 220 212
-252.685356 -319.712543 722.165632 177 193 195
-260.501051 -315.227532 701.351595 183 201 202
-254.286194 -317.759800 720.702314 110 123 125
-254.366660 -311.818838 721.553612 195 210 212
-247.641277 -316.087389 740.341187 131 143 149
-247.641277 -316.087389 740.341187 131 143 149
-255.816960 -284.558201 729.640722 165 178 185
-257.885909 -292.681599 733.117342 169 184 190
-259.902811 -299.647498 736.125565 170 185 191
-261.520410 -301.304817 737.111616 81 93 99
-261.520410 -301.304817 737.111616 81 93 99
-262.063980 -300.635576 736.847591 165 178 184
-262.382960 -301.473641 737.271023 155 167 172
-262.252021 -306.597257 739.114380 165 179 187
-264.918780 -310.353398 741.047668 168 179 186
-265.343714 -311.749339 741.667271 155 166 173
-266.173172 -314.464331 742.742348 163 175 181
-269.131613 -324.220443 746.941900 166 175 183
-268.810010 -326.034164 747.749043 72 82 89
-268.810010 -326.034164 747.749043 72 82 89
-268.791866 -329.056501 748.466587 177 187 194
-270.398211 -334.694242 751.204252 183 196 202
-272.206855 -340.670300 753.510571 180 192 198
-273.654032 -339.322710 753.362131 183 195 201
-274.633288 -343.068433 754.952145 178 188 196
-279.922390 -360.457516 762.053919 184 192 199
-280.849147 -364.128470 763.422441 175 182 189
-232.494688 -317.946553 713.469362 139 152 161
-234.755731 -365.896153 753.974199 176 187 195
-234.755731 -365.896153 753.974199 176 187 195
-227.451372 -316.409063 737.311792 42 53 61
-241.827679 -316.761422 681.683874 223 218 218
-242.168927 -316.817117 681.371689 223 218 218
-234.704399 -321.114421 730.358028 72 95 101
-249.384165 -322.904253 680.594635 155 151 150
-244.254661 -320.511031 705.408049 43 58 65
-246.327806 -326.144671 703.803682 45 58 66
-247.143507 -325.540519 708.469725 98 121 127
-242.856002 -322.158623 730.532694 48 63 68
-250.089073 -325.972319 704.714155 99 123 128
-243.848968 -321.804380 730.684471 52 65 72
-251.129079 -326.254892 702.676916 44 56 65
-253.070855 -327.767372 695.899010 17 20 29
-252.653694 -327.015281 697.032690 9 11 21
-248.965287 -301.086688 699.000263 224 225 225
-251.424885 -325.688505 703.501606 108 132 138
-242.309713 -321.538663 741.561985 143 159 166
-244.908333 -321.047735 730.798817 117 142 148
-248.717403 -322.032309 720.416880 7 17 23
-248.599553 -349.918103 750.280428 130 144 153
-254.952979 -325.876188 697.637367 19 18 26
-254.952979 -325.876188 697.637367 19 18 26
-252.651572 -323.718143 706.514311 120 144 148
-249.576283 -321.647167 719.431067 124 149 153
-253.709149 -324.354768 704.895115 122 144 149
-257.903886 -317.916203 680.280399 221 216 215
-252.121902 -321.611810 715.066719 134 156 161
-247.152495 -317.674685 736.596441 77 90 93
-249.073744 -318.981552 729.071617 79 92 95
-258.976936 -320.750165 691.011858 224 225 225
-256.011415 -322.704506 704.802370 141 164 169
-248.689818 -316.812444 734.641504 169 188 190
-255.819249 -321.866703 706.212902 146 168 173
-260.918784 -324.395204 689.421129 224 225 225
-252.279568 -317.881775 724.499512 161 177 179
-253.062129 -317.445421 720.762396 168 188 191
-259.954834 -321.626019 697.384357 151 165 167
-260.644269 -320.865560 696.973610 36 39 45
-259.947467 -319.174981 700.638914 85 95 97
-252.637911 -271.552157 728.195763 94 105 109
-256.316233 -286.970806 734.036207 162 177 183
-256.297302 -280.470681 731.380033 157 172 178
-257.359648 -285.231137 733.274269 161 175 180
-258.317113 -288.181639 733.854580 157 169 175
-260.829997 -303.004146 739.651489 158 174 182
-260.061550 -294.524384 736.353922 156 169 176
-262.695861 -308.879256 741.001320 156 174 181
-262.241721 -301.650095 738.662910 160 171 179
-263.180828 -304.946828 739.503860 161 174 181
-265.178633 -318.698406 743.748856 169 183 189
-266.143179 -321.207738 744.703817 172 187 192
-267.000246 -317.911434 743.375301 148 159 165
-268.195510 -327.555037 746.316624 161 173 180
-267.515993 -319.500899 744.177294 168 180 186
-268.853402 -323.807716 745.154810 162 173 180
-271.701908 -333.373308 747.928524 156 167 174
-272.384191 -335.797858 748.698568 167 177 184
-277.777719 -359.777498 755.283976 177 188 194
-278.586531 -362.477160 755.979586 183 194 199
-277.116466 -348.433924 752.365303 169 179 188
-279.916883 -367.321181 757.602358 181 191 196
-280.388117 -368.614721 758.704948 183 194 201
-280.338860 -362.194037 756.025696 149 159 167
-280.532289 -362.922072 756.766844 181 189 196
-283.189440 -371.866369 759.884691 184 192 199
-284.127736 -381.637573 763.440323 184 193 200
-283.563304 -373.322606 760.258770 180 190 197
-284.221101 -378.629732 762.318945 78 85 90
-284.865594 -377.078938 761.176109 163 172 181
-284.890699 -377.653384 762.508106 161 171 177
-285.666990 -380.621433 763.232565 172 180 187
-276.968718 -356.861091 789.839220 179 188 194
-226.113033 -352.975082 747.935438 160 173 181
-250.355244 -318.321300 670.253897 125 118 119
-235.360408 -321.264100 733.668041 35 47 49
-248.060489 -327.421260 702.806282 92 111 118
-236.003399 -320.916486 736.063147 78 100 106
-243.355823 -325.011587 717.304659 39 54 62
-247.215843 -326.807594 707.413149 51 61 70
-249.183035 -327.366400 701.668930 96 116 123
-243.377209 -324.566913 718.284941 95 110 117
-242.221332 -324.249005 722.054052 39 52 60
-243.281293 -324.650073 718.952322 50 61 69
-248.243237 -327.254438 705.449963 91 111 117
-248.243237 -327.254438 705.449963 91 111 117
-249.024892 -327.020645 703.083229 95 113 120
-244.063282 -324.286461 718.600655 93 116 122
-244.063282 -324.286461 718.600655 93 116 122
-249.755979 -326.887345 703.168964 96 117 123
-248.457980 -326.675820 707.508612 46 60 68
-243.667459 -324.099779 722.328901 41 59 66
-248.386383 -326.278806 708.927155 54 68 75
-249.148941 -326.334524 707.128382 96 116 122
-249.407601 -326.106215 705.990410 95 113 120
-249.407601 -326.106215 705.990410 95 113 120
-246.269560 -324.942303 715.879297 95 114 121
-249.742603 -326.475382 706.394196 44 58 65
-249.326134 -326.339126 707.745934 43 57 63
-250.286984 -326.460266 705.204201 39 53 61
-247.133541 -325.217938 715.134048 35 50 57
-247.133541 -325.217938 715.134048 35 50 57
-253.701687 -327.788448 696.137142 103 120 124
-253.701687 -327.788448 696.137142 103 120 124
-246.606350 -324.646544 717.212772 98 116 123
-250.264740 -325.891829 706.026936 98 119 124
-250.264740 -325.891829 706.026936 98 119 124
-247.378731 -324.604321 714.852858 100 119 126
-251.179934 -326.486301 703.902721 45 58 64
-250.315380 -326.485443 706.964159 98 120 126
-247.280908 -325.000358 715.843296 100 116 123
-247.280908 -325.000358 715.843296 100 116 123
-246.971941 -324.423385 717.866850 46 59 66
-250.604677 -325.578427 706.682062 63 76 83
-243.212557 -322.185135 728.553104 101 122 128
-243.212557 -322.185135 728.553104 101 122 128
-253.578234 -327.010393 698.149395 41 53 59
-246.551967 -323.652482 718.918419 98 121 127
-243.084073 -322.600603 730.263281 44 58 66
-257.247186 -310.359430 667.284775 120 115 116
-243.517470 -322.157836 729.894161 107 125 132
-248.666048 -324.558496 714.755201 102 123 128
-253.740597 -326.679015 699.490356 48 63 69
-247.245479 -323.974895 719.285679 35 50 57
-247.245479 -323.974895 719.285679 35 50 57
-254.301810 -326.501441 698.194742 20 27 34
-254.869819 -326.800895 696.715975 26 35 43
-248.674369 -324.270105 716.039085 106 125 132
-248.674369 -324.270105 716.039085 106 125 132
-252.773762 -325.800800 703.416729 110 130 135
-252.773762 -325.800800 703.416729 110 130 135
-254.014182 -325.812840 700.802612 63 76 82
-249.249816 -323.865652 715.555525 34 45 50
-254.975462 -326.410818 698.196459 106 126 131
-250.845289 -324.183130 710.791349 59 72 80
-250.845289 -324.183130 710.791349 59 72 80
-244.350052 -321.281052 731.839228 39 53 59
-251.920724 -323.646164 708.077097 113 132 139
-256.053281 -305.994892 672.479916 212 193 188
-255.694890 -325.861931 697.559166 111 133 137
-255.157161 -325.660396 700.701571 64 79 84
-250.460577 -323.484993 715.435982 41 51 57
-251.925206 -323.804951 710.712337 55 69 76
-251.925206 -323.804951 710.712337 55 69 76
-256.537414 -325.575233 696.408844 117 141 147
-248.878503 -322.501445 720.327520 16 23 30
-252.832603 -324.196219 708.264256 59 75 81
-248.747158 -322.775650 722.013044 41 53 58
-246.383834 -321.410346 729.211235 52 68 73
-246.383834 -321.410346 729.211235 52 68 73
-252.364779 -323.734522 711.158323 118 138 142
-254.500318 -323.756099 703.878832 125 146 151
-249.645114 -321.898794 719.434738 119 141 146
-251.254272 -322.920585 715.965509 120 141 143
-249.203134 -321.542263 721.926498 125 143 149
-254.181123 -323.577833 706.860209 68 81 87
-250.872660 -321.872926 718.719006 126 147 150
-253.929996 -322.911286 708.894634 125 144 148
-253.929996 -322.911286 708.894634 125 144 148
-253.809619 -323.072147 710.016346 129 147 151
-253.809619 -323.072147 710.016346 129 147 151
-256.842494 -323.714852 699.924994 69 80 85
-252.033281 -321.531177 715.217161 128 147 150
-251.245904 -321.258521 718.365765 71 84 86
-247.707224 -319.551444 729.490614 78 92 96
-257.474160 -323.296905 699.890709 72 82 89
-252.485561 -320.961905 715.707779 85 91 96
-251.519895 -320.481157 719.731522 74 91 95
-251.519895 -320.481157 719.731522 74 91 95
-246.387506 -318.139839 736.858654 82 95 101
-246.815753 -318.195939 735.751343 140 161 166
-258.162117 -323.054099 700.162697 136 156 157
-252.919483 -320.792294 716.820383 48 55 60
-256.323123 -321.907234 705.649948 84 97 103
-256.323123 -321.907234 705.649948 84 97 103
-259.063387 -322.490406 696.788025 143 163 166
-257.681918 -321.757174 701.177549 81 89 92
-255.898666 -320.968699 707.176256 77 89 93
-258.428836 -322.519565 699.721813 74 87 90
-259.676337 -322.279406 696.302462 22 27 32
-259.676337 -322.279406 696.302462 22 27 32
-273.895097 -339.256001 662.875652 137 128 128
-255.248070 -320.034862 711.328459 149 167 170
-258.493280 -320.794559 701.109552 65 78 80
-250.997567 -317.957139 725.891447 159 172 176
-255.755830 -319.498777 710.253048 149 162 166
-253.923202 -318.946099 716.841269 64 75 77
-259.019852 -320.792270 700.319290 158 179 182
-260.204959 -320.280290 696.577215 155 174 180
-256.891513 -318.693614 708.254623 100 108 111
-254.536724 -317.906523 716.130304 158 177 178
-246.738076 -314.170957 741.045046 93 105 111
-256.771612 -318.309212 709.089327 166 185 186
-260.979533 -320.017719 696.310949 68 78 80
-258.360696 -317.615342 704.534006 94 101 104
-254.547930 -315.993333 717.074251 79 87 90
-249.652553 -313.191080 733.183002 167 177 179
-254.410386 -315.743303 719.319963 108 118 121
-254.410386 -315.743303 719.319963 108 118 121
-247.883129 -312.536883 740.423298 119 134 140
-259.339643 -316.918659 704.059076 90 98 101
-253.664899 -312.009597 721.711540 195 210 209
-259.794164 -315.578890 703.838348 104 112 114
-255.400848 -307.264304 712.939882 197 214 212
-268.168116 -307.685828 670.140934 182 170 168
-262.509274 -305.747843 692.778730 124 137 145
-262.737083 -306.093049 692.648983 124 137 145
-268.175888 -307.336569 683.782721 125 138 146
-269.108248 -308.768201 683.202744 125 138 146
-236.543131 -214.063239 703.071404 96 105 114
-253.872561 -279.744267 731.664610 161 177 184
-254.495645 -281.784463 732.505703 161 175 182
-257.158327 -293.113303 737.205410 170 185 188
-258.816504 -297.906423 739.072561 158 174 181
-257.652092 -290.281177 736.246300 77 88 94
-257.652092 -290.281177 736.246300 77 88 94
-256.963396 -285.533166 734.570551 153 168 173
-259.745121 -297.511506 739.212036 64 74 79
-259.745121 -297.511506 739.212036 64 74 79
-262.610102 -309.854293 743.763018 163 178 184
-259.984207 -295.746469 738.494158 166 179 185
-261.550260 -300.931525 740.741205 165 178 184
-262.382722 -303.911710 741.728258 146 157 162
-264.444399 -310.551810 744.178152 164 177 184
-270.636821 -336.176038 752.769470 173 186 192
-271.357298 -338.212729 753.355455 151 164 172
-273.568654 -345.857120 756.046200 174 185 192
-271.841359 -334.385395 752.551889 166 176 183
-273.285484 -339.019775 754.281187 172 183 191
-274.678946 -343.687463 755.410528 166 178 185
-280.759907 -369.208479 763.159084 172 182 190
-274.007773 -362.667274 782.562256 179 188 197
-300.264764 -297.824407 751.852894 132 141 150
-242.073822 -324.525237 689.826870 161 165 166
-242.962742 -325.168514 689.650965 161 165 166
-245.799255 -325.915623 684.698629 229 224 221
-246.860051 -328.111720 688.513231 161 165 166
-240.459609 -321.755362 712.640381 55 70 78
-253.067660 -327.791882 695.810461 12 11 20
-249.949503 -326.356196 703.932428 62 72 81
-249.166965 -325.769353 706.177473 100 114 121
-247.733688 -325.142741 710.054636 99 117 122
-251.810217 -326.482773 701.659060 98 120 126
-241.610599 -320.342350 721.583605 50 64 70
-253.492498 -326.888108 698.169470 26 32 40
-240.249753 -321.917319 727.353573 61 75 82
-254.484892 -326.834130 697.406435 109 128 133
