ply
            format ascii 1.0
            element vertex 15026
            property float x
            property float y
            property float z
            property uchar blue
            property uchar green
            property uchar red
            end_header
1202.123737 2277.062607 4734.073639 168 173 188
3934.727478 -2951.540565 2665.169144 117 123 122
1133.419418 2220.495033 4723.653030 59 56 49
2257.911110 2066.315079 5094.628143 173 184 188
900.491142 2216.401672 4691.952896 187 200 202
2149.946976 2029.452896 5065.065765 85 89 70
1041.422081 2204.522324 4756.519318 180 192 195
1551.350021 2121.506310 4910.119247 170 184 187
1551.350021 2121.506310 4910.119247 170 184 187
1122.830486 2173.716164 4790.156555 27 27 28
712.851477 2197.870445 4706.993484 47 37 34
-1235.613346 2455.734253 4139.834976 40 46 51
1111.527157 2129.705238 4820.440674 140 148 166
-15.129355 2324.685478 4538.875961 122 124 95
1203.285694 2124.561691 4864.787292 160 176 183
1208.787155 2110.204506 4858.965302 160 176 183
1530.920982 2088.778877 4976.155853 156 163 181
-954.221916 2371.862793 4238.000870 190 204 203
4618.651581 -3588.963318 1990.643311 35 34 30
-850.453949 2340.217781 4308.211517 197 209 210
1556.184864 2006.577682 4987.469482 27 27 30
1574.285984 2007.687187 4998.123169 158 174 177
454.050398 2173.662567 4703.199387 193 203 202
1138.790798 2074.312973 4908.126068 143 153 170
1372.927189 2028.159714 4963.500595 64 66 77
-838.368988 2279.445457 4336.288452 168 171 194
1774.116325 1940.911674 5087.036133 164 176 182
1612.423134 1976.153374 5107.943344 161 173 179
457.104492 2070.224190 4762.134171 171 177 188
1280.323315 1970.812607 5007.934952 121 127 139
1280.323315 1970.812607 5007.934952 121 127 139
-1030.582619 2223.417473 4375.688171 41 39 39
1238.280392 1955.883217 4994.588852 140 149 169
1249.516964 1931.114578 4984.497833 140 149 169
1203.899765 1941.485977 4993.970871 26 30 31
2278.754807 1842.303467 5303.969955 153 152 184
3382.685089 -2071.642113 3029.376793 175 183 189
660.170555 2012.772179 4897.742844 140 174 184
433.834982 1995.836449 4813.600540 176 181 193
679.777861 1966.466522 4912.650681 65 80 83
-215.386939 2110.687637 4719.421387 116 118 96
-215.386939 2110.687637 4719.421387 116 118 96
328.945231 2002.528381 4837.893677 130 129 104
1307.907963 1871.769333 5079.669189 29 25 27
1334.741783 1862.644958 5089.220810 149 162 170
379.572868 1958.475685 4854.241562 175 179 189
1334.841156 1848.255730 5139.982986 140 159 164
822.929287 1895.889854 5023.937607 155 162 178
2130.886841 1731.529617 5389.820480 107 108 85
2912.992096 -1464.383125 3287.826538 163 160 155
638.838100 1791.106796 5071.300888 35 36 35
1262.203407 1720.232964 5236.250687 30 31 31
1258.878517 1687.949562 5267.872238 137 153 158
2101.814651 -124.653792 3972.609329 180 186 201
782.351875 -502.265167 3254.205322 11 39 48
410.869837 -226.183176 3435.681534 20 30 30
577.469587 -279.361844 3405.987167 10 31 43
458.060360 -267.388463 3405.186081 23 32 35
1179.140091 1629.328346 5306.401443 24 27 25
1179.140091 1629.328346 5306.401443 24 27 25
1157.579422 1618.648720 5302.184296 34 35 34
643.967009 19.960049 3737.450027 150 157 154
2218.862915 1554.692554 5562.887955 163 184 183
783.080864 -483.361721 3337.281418 30 38 39
3087.053680 -825.407696 3695.302963 83 120 114
795.349169 -550.735569 3299.291229 28 118 132
780.027342 -464.207840 3373.509216 13 30 44
810.560036 1618.821716 5253.929138 161 173 175
778.467989 -452.513361 3389.224243 10 31 43
735.452127 -371.675587 3460.014343 26 37 33
673.684216 1.649221 3785.685349 64 63 59
799.411964 -552.113628 3322.099304 18 29 30
783.584929 -478.711319 3386.827469 0 9 21
777.755356 -446.825600 3416.125107 2 32 42
787.572813 -479.663897 3398.452377 41 120 133
821.178055 -612.008572 3287.893295 22 50 52
814.244175 -626.062393 3287.545395 45 49 48
814.244175 -626.062393 3287.545395 45 49 48
817.913532 -616.462231 3298.872757 17 38 43
1077.734947 1566.202164 5363.850021 156 170 169
800.749493 -656.369114 3262.458038 33 72 65
751.585436 -320.722747 3556.761169 139 143 142
1397.544956 1555.878925 5445.552444 164 155 145
1261.852932 1568.741798 5422.279358 132 161 176
641.710091 180.776858 3990.209961 65 66 64
318.985319 1065.002155 4721.020126 67 69 70
478.672028 -226.297045 3584.920120 57 132 147
815.688229 -634.459305 3299.823761 143 140 139
636.250734 190.717113 4021.479034 65 66 62
797.882557 -575.503778 3366.474533 25 30 31
1007.405853 1520.303726 5358.157730 37 35 33
783.178711 -489.277411 3452.445221 75 114 118
783.178711 -489.277411 3452.445221 75 114 118
723.883581 -159.294343 3743.246078 37 34 36
792.019176 -505.789518 3443.714142 75 114 118
792.019176 -505.789518 3443.714142 75 114 118
1000.862980 -645.547962 3368.126678 10 31 43
807.970905 -656.451273 3309.552383 139 140 136
796.108866 -542.164135 3413.150787 18 34 40
812.009430 -673.119450 3296.541595 133 135 131
652.813816 135.968852 4008.576584 41 42 38
805.005741 -683.039808 3295.314026 32 58 55
788.284731 -521.709633 3440.577316 3 25 32
785.163021 -497.669649 3462.886810 20 30 30
816.078186 -664.059830 3322.679138 43 50 49
799.687719 -616.688251 3368.699646 22 39 34
817.927933 -691.641283 3305.177689 158 160 158
811.919689 -673.515177 3321.735382 147 150 150
822.173023 -652.335739 3352.143860 31 48 45
1373.099327 1471.209240 5489.592361 174 161 153
785.968256 -562.666368 3437.307739 26 37 41
701.865721 -72.573960 3874.826813 141 142 140
705.011320 -100.550187 3861.864853 50 43 75
722.691727 -199.611545 3774.341583 16 31 33
697.727633 -87.847310 3876.637268 140 141 136
810.619164 -671.286869 3362.261963 32 45 43
791.119719 -588.816595 3438.937378 49 137 147
797.336006 -624.992132 3407.372284 14 33 30
781.427765 1476.326561 5385.178757 39 38 36
791.864586 -603.136730 3429.045105 15 28 32
703.328180 -118.739641 3864.259720 139 142 134
780.102539 -524.903297 3501.418686 25 29 39
783.822584 -552.736998 3476.557922 22 32 37
805.721283 -695.176506 3347.366714 145 147 147
724.654102 -244.112468 3762.065506 30 33 34
-489.090586 625.109816 4283.139801 25 23 20
806.861496 -690.656233 3361.147308 40 49 48
787.015438 -593.162775 3450.713730 23 35 39
704.790020 -139.907336 3862.965012 45 45 44
779.223871 -538.196659 3506.222534 83 129 143
779.223871 -538.196659 3506.222534 83 129 143
784.673977 -551.664257 3497.589874 83 129 143
781.403351 -587.258530 3462.202454 22 37 37
1326.738358 1431.932926 5512.010193 41 33 25
1326.738358 1431.932926 5512.010193 41 33 25
663.634205 79.435337 4071.007919 40 43 41
630.880785 269.204545 4243.519211 115 117 117
818.101311 1460.198593 5432.680130 139 138 134
775.589085 -541.414738 3519.495773 20 26 32
778.538752 1435.722542 5413.164520 146 157 159
803.398228 -730.782413 3354.910278 163 159 158
1050.673580 1427.538967 5475.740051 174 187 185
704.129267 -113.955998 3923.815918 42 43 44
709.039879 -146.390867 3896.591187 141 136 133
709.243345 -176.543629 3871.318817 157 158 155
405.530453 1303.516483 5223.192978 119 124 123
781.126308 -776.579857 3321.699524 35 135 153
670.567751 58.670723 4107.415771 45 46 44
730.029678 -128.597128 3944.796753 36 38 38
719.586611 -256.909180 3831.791687 147 142 147
425.489998 1270.553398 5237.316132 126 129 129
1707.230568 -1224.530029 3299.161148 163 159 158
714.908218 -272.056675 3843.239594 163 161 163
652.150106 116.164577 4207.455444 98 99 97
566.481876 583.745480 4644.130325 20 21 19
627.087498 223.870635 4309.923553 33 34 31
779.806471 -720.340395 3429.734039 29 52 50
722.716522 -154.949176 3969.244385 43 45 46
419.435120 1276.379585 5301.959610 142 144 144
437.600088 1226.256275 5261.430740 125 128 126
713.495922 -294.020796 3843.853760 36 38 42
-361.945653 3329.133987 7182.701874 171 167 162
608.332968 316.075611 4437.074661 108 109 107
608.332968 316.075611 4437.074661 108 109 107
710.372019 -315.939736 3840.903091 162 164 160
659.368563 25.631562 4165.246201 106 105 105
659.368563 25.631562 4165.246201 106 105 105
776.706266 -797.492266 3385.087967 32 141 155
777.321386 -748.433399 3434.352875 41 117 149
467.127132 1074.645424 5163.984299 29 31 31
1696.195030 1307.243919 5663.980103 156 165 194
604.377699 311.150646 4445.019150 118 121 119
648.932076 83.354604 4232.270432 144 146 141
712.278175 -322.794294 3848.628616 25 25 25
574.349976 462.807322 4592.446518 46 47 45
755.736780 -555.336285 3633.074188 23 29 32
585.609102 419.842482 4557.007980 118 119 117
642.541409 13.656630 4176.852036 36 36 36
711.353779 -332.759452 3854.940033 36 35 36
495.851612 927.281189 5054.913330 81 82 80
722.003746 -444.505882 3749.216843 174 173 175
722.003746 -444.505882 3749.216843 174 173 175
535.410643 684.563780 4826.408005 90 88 87
577.560186 494.322395 4648.462296 118 119 117
557.060194 538.877153 4694.003296 22 23 21
701.699114 -337.693262 3858.414078 182 184 186
701.699114 -337.693262 3858.414078 182 184 186
635.110140 101.649606 4279.219818 39 37 36
700.408411 -309.654832 3891.399002 54 53 55
713.355827 -442.663717 3764.177704 198 193 194
691.631222 -347.289276 3856.438828 39 43 44
709.462309 -418.884468 3790.372467 183 184 182
571.280193 474.131870 4652.510452 19 20 18
574.046755 440.300894 4623.049927 117 118 116
764.377308 -828.623581 3404.414368 9 66 57
635.379696 76.109213 4279.362106 105 105 105
686.397982 -824.493313 3394.066620 82 166 177
618.094587 156.367767 4359.317780 47 48 46
709.497261 -455.202627 3770.100021 136 128 128
709.497261 -455.202627 3770.100021 136 128 128
528.746605 642.856646 4827.993774 38 36 35
629.847574 -36.893988 4179.509735 33 34 38
609.224558 197.785473 4414.798355 111 112 110
534.127903 615.563583 4820.148087 116 114 113
575.848103 369.325233 4583.271408 29 30 28
714.067745 -461.036301 3783.750153 32 33 36
703.999186 -470.883608 3773.023224 170 165 168
688.201761 -363.371825 3877.522659 179 175 177
610.099316 152.294803 4378.842545 120 121 119
471.303320 951.125526 5150.829315 62 63 63
686.788607 -343.557239 3901.427078 167 170 168
552.107525 503.392982 4722.599030 20 19 17
468.513203 1314.210129 5518.453217 125 136 139
555.941772 449.582958 4670.225906 139 140 138
541.924000 529.075050 4750.585938 24 22 21
436.411953 1319.066143 5521.531677 16 23 20
643.295908 -91.221792 4150.939941 39 41 43
668.219662 -254.635811 3994.797134 62 60 60
699.236584 -436.232519 3819.307709 33 33 35
598.608494 190.038610 4427.722549 121 122 120
701.585722 -473.794317 3782.642746 19 16 19
615.258551 117.703652 4362.046051 145 146 142
544.980860 494.355631 4734.453201 27 25 24
470.073652 829.273319 5057.090378 23 25 18
697.442245 -479.545498 3788.402176 170 168 170
677.502728 -371.842718 3894.747543 19 9 16
674.749517 -359.432244 3909.243774 41 37 43
632.086658 -61.711770 4201.139069 37 39 39
644.089890 -139.754021 4127.778625 94 96 96
631.982613 -53.557801 4212.397766 40 41 44
693.904018 -459.366703 3815.414429 37 37 42
515.659904 663.959694 4913.341904 124 122 121
695.287561 -487.635088 3787.718582 39 38 38
696.746349 -542.621994 3737.218475 24 29 30
659.337425 -195.348799 4081.698608 40 42 42
674.526644 -384.220552 3894.458008 180 176 178
613.640451 15.914485 4292.866135 162 162 162
550.982618 396.462846 4668.332291 119 120 117
530.657578 509.663963 4784.955215 100 98 97
677.562475 -478.592634 3812.780380 18 21 21
608.493280 4.273972 4291.149902 39 37 36
531.138563 525.194168 4804.250717 129 127 126
568.076754 312.421131 4599.662399 122 123 121
684.094810 -498.129845 3800.004959 53 53 54
566.712046 280.451441 4568.976212 113 114 110
671.417475 -368.521237 3930.757904 45 45 45
677.090931 -508.872843 3791.663742 20 24 25
662.740564 -394.239187 3905.998611 191 193 193
661.367989 -405.692291 3894.503403 37 41 41
660.758781 -377.293634 3927.885437 200 201 199
579.955149 127.156222 4426.984024 25 21 20
579.955149 127.156222 4426.984024 25 21 20
594.001389 144.086385 4447.348404 122 121 117
650.116587 -279.601192 4030.181122 171 166 176
526.746130 492.945671 4794.099808 115 113 112
674.467707 -468.767071 3845.123291 38 42 42
511.979342 524.094439 4825.902939 107 105 104
668.965960 -483.293390 3830.461884 202 193 193
578.581858 131.380010 4439.595032 104 103 100
513.975716 579.959631 4885.387421 102 102 100
719.411707 -902.987289 3414.493561 20 90 89
719.411707 -902.987289 3414.493561 20 90 89
633.153963 -272.034121 4046.777725 62 55 116
527.279520 462.017488 4776.033020 143 141 140
536.092234 335.670090 4650.731277 100 101 99
521.276522 454.669476 4771.084976 10 6 6
712.967205 -896.027374 3427.437973 84 171 180
721.927214 -879.458237 3449.083710 82 165 180
591.388988 -15.900292 4309.405136 44 42 41
578.165483 98.360264 4424.239349 132 130 129
510.330105 584.376574 4911.140060 116 114 113
502.755022 528.643894 4859.213257 121 119 118
555.589533 260.542226 4596.992874 35 34 30
657.447052 -479.334736 3857.723618 30 32 32
658.394766 -490.126467 3849.078751 196 192 188
628.273249 -303.536797 4035.219574 67 64 67
644.084883 -328.773522 4012.541962 194 184 184
621.289778 -237.212777 4102.303314 13 14 12
526.493788 432.497835 4772.048187 23 19 18
576.177216 46.191677 4389.688492 108 106 105
551.702642 206.676698 4550.312424 40 41 37
573.191166 105.122089 4450.189209 141 141 138
525.365925 417.271137 4762.752151 112 110 109
556.323147 184.636974 4540.270233 113 114 110
635.818577 -410.875797 3944.350433 46 48 48
636.637068 -410.192537 3945.402527 46 48 48
497.911930 488.446856 4847.298050 104 102 101
554.594803 117.480695 4476.886368 36 37 35
590.566540 -113.838565 4245.523071 109 108 107
590.566540 -113.838565 4245.523071 109 108 107
650.509024 -508.362007 3852.690506 43 44 44
585.830593 -123.178303 4239.604950 35 36 34
796.581459 -635.056639 3762.296295 10 13 12
507.786989 429.946566 4811.325455 23 21 20
617.252970 -401.053333 3975.638199 39 41 41
455.413675 645.906496 5031.035614 32 33 31
614.240789 -312.527132 4069.598770 187 180 177
498.605967 420.889997 4809.286499 183 181 180
568.441582 -84.263533 4299.579239 96 97 95
528.374338 1205.064869 5637.671280 173 185 183
474.555779 514.654684 4912.073898 117 118 116
615.338182 -427.630377 3959.704590 31 27 28
478.411341 487.517500 4888.696289 97 102 100
566.088200 -52.371877 4344.457626 51 50 46
566.088200 -52.371877 4344.457626 51 50 46
389.906383 1072.070885 5488.388062 34 33 35
610.408545 -450.607634 3944.150162 216 215 211
492.274809 436.233139 4846.730042 28 26 25
609.073067 -434.423447 3966.071320 215 216 213
473.567867 502.696705 4920.815277 28 26 26
595.265484 -307.196808 4098.462296 31 31 31
541.630220 68.542844 4481.757736 32 32 32
604.821968 -443.972015 3959.191132 38 35 37
546.014452 -14.985275 4397.788620 99 97 96
555.403566 -6.641442 4410.360718 89 87 86
551.252937 -131.332958 4285.095215 40 38 36
468.668413 462.302685 4896.573257 116 116 116
465.177774 482.866764 4920.879745 122 122 122
465.980053 365.524864 4806.404877 24 24 24
588.816833 -451.303291 3973.406601 43 39 41
588.816833 -451.303291 3973.406601 43 39 41
574.293518 -479.023361 3952.265930 52 51 55
418.139076 857.732677 5335.865402 194 185 182
418.139076 857.732677 5335.865402 194 185 182
539.902735 -171.687949 4278.144455 224 219 216
526.202583 -441.278458 3992.995071 179 174 172
526.202583 -441.278458 3992.995071 179 174 172
437.172270 498.559618 4970.992661 20 22 22
523.508835 -42.621651 4417.913055 25 25 25
799.031353 1143.702602 5717.019272 37 31 30
799.031353 1143.702602 5717.019272 37 31 30
579.469728 -455.969477 3994.594955 53 53 53
570.737314 -484.447908 3963.740158 218 214 214
452.831411 355.012012 4831.929016 22 22 22
503.106117 -16.437434 4451.833344 22 22 22
519.129896 -143.985641 4322.609329 24 20 19
552.196932 -353.172255 4107.246780 218 217 209
514.936256 -153.667068 4314.019775 126 126 124
499.355745 -28.633317 4445.276260 95 95 95
499.355745 -28.633317 4445.276260 95 95 95
566.316652 -560.518646 3895.412064 226 218 218
559.519863 -471.871090 3988.064194 50 46 45
570.145178 -596.949530 3861.756516 54 49 46
541.731405 -365.328932 4104.746628 54 54 45
509.148312 -144.260585 4336.765671 100 116 115
492.579126 -32.578304 4455.404282 19 19 19
744.128180 1124.363422 5728.948212 188 199 197
744.128180 1124.363422 5728.948212 188 199 197
507.206678 -191.966176 4294.656372 198 198 196
559.499168 -572.955847 3898.494339 218 207 207
558.618116 -614.549065 3854.255676 72 69 68
1072.466660 1118.017197 5780.309677 36 37 33
372.804046 686.678410 5210.492325 72 74 75
362.409544 825.685978 5357.857132 64 66 67
460.063934 99.550760 4602.956390 166 164 163
460.063934 99.550760 4602.956390 166 164 163
384.475780 606.143284 5131.729126 19 24 23
2110.199928 -202.864337 4570.736694 41 33 25
540.323830 -507.107592 3975.247955 232 219 209
550.916719 -615.124607 3865.832138 189 183 181
461.652184 68.754989 4580.799866 88 86 82
542.578030 -583.529615 3900.474930 201 192 190
521.710062 -617.724609 3868.497086 66 66 66
455.473423 -21.505861 4496.052933 32 30 36
508.482409 -410.153770 4090.982437 69 61 56
529.570818 -591.730738 3900.228500 72 72 72
513.805914 -523.362398 3972.157288 58 58 56
323.464394 883.369637 5452.841187 48 41 36
497.197199 -403.216076 4108.211899 231 224 218
446.229410 -9.480902 4523.114395 33 32 37
446.229410 -9.480902 4523.114395 33 32 37
508.572006 -588.031912 3923.302460 71 72 73
420.187378 63.348335 4610.699463 20 22 23
482.509804 -523.146629 3996.689606 64 60 61
476.794720 -410.068035 4120.841217 76 71 70
2225.431824 1066.439629 5984.844971 62 31 31
1600.246429 1064.698696 5892.620468 199 209 208
1303.322220 1068.276501 5860.989380 119 123 98
1303.322220 1068.276501 5860.989380 119 123 98
1599.231243 1042.734909 5902.402115 37 28 29
480.099392 772.097492 5455.182648 43 52 68
194.208324 683.409023 5362.483597 94 94 100
2415.914726 -1669.146156 3330.171967 179 185 203
-384.854460 963.306236 5676.015091 63 107 123
-384.854460 963.306236 5676.015091 63 107 123
-527.085876 949.264145 5672.139740 148 160 164
-420.398045 950.268936 5694.083405 140 173 186
2119.829559 986.624622 6053.567886 176 177 199
-414.824677 939.403439 5705.536652 84 114 129
-1918.249702 886.855793 5479.565811 144 149 125
-372.311854 924.881840 5724.023056 78 111 136
-1686.366272 884.064293 5523.039627 138 140 112
-1681.777573 881.040096 5521.313095 138 140 112
-1691.359901 863.449192 5541.062546 35 39 31
-230.235314 902.861404 5761.494827 179 188 209
-3389.030075 919.177341 5478.910446 128 147 154
-291.534758 884.919643 5782.702637 139 154 165
-365.866590 875.065613 5768.434143 25 32 35
-365.866590 875.065613 5768.434143 25 32 35
-3203.596115 877.763081 5468.630219 228 226 246
-1208.510017 852.592659 5658.271027 123 159 146
-1158.813858 831.506157 5663.288879 41 43 31
-1130.825615 830.255890 5677.726746 119 118 97
589.713192 889.061546 5934.251022 170 172 193
2110.294914 905.547523 6114.290237 165 165 195
2258.393478 895.374680 6138.719177 43 26 50
-1150.146008 798.651981 5700.268936 218 225 220
-1150.146008 798.651981 5700.268936 218 225 220
223.291755 823.157024 5895.200729 196 208 208
2352.530861 867.048931 6183.013535 63 100 128
2087.062836 846.896744 6157.883453 36 35 26
2195.873260 858.198547 6195.485306 176 170 186
-2431.732559 682.631826 5642.004776 152 205 210
216.324544 777.628422 5962.321854 202 210 209
-76.016694 765.130997 5927.487946 26 31 35
2066.462708 809.971046 6148.678970 183 192 196
-2223.551369 631.819963 5678.076935 211 189 174
-2277.347183 612.372684 5690.834427 146 194 199
-2365.991974 570.070648 5707.728958 163 214 224
-2411.568832 559.826517 5724.703217 56 66 66
-2376.271057 561.541128 5729.203415 60 67 64
-2394.472313 543.440914 5740.511703 205 188 172
1979.884720 760.309267 6247.174072 142 157 169
-1456.068230 566.687679 5871.403122 38 47 41
-2780.583382 547.483826 5786.326981 233 232 248
-1438.991737 550.490093 5885.704803 215 221 218
-120.576262 590.966177 6034.399796 178 186 207
2459.184456 -1695.084763 3319.405365 197 209 210
-2056.464767 477.374554 5886.355209 219 224 219
1784.749985 684.479809 6266.407013 163 176 184
-1834.855843 477.732897 5899.563980 212 214 207
-123.081946 571.492147 6075.031662 178 183 206
-120.740128 569.891644 6073.884964 178 183 206
-601.959801 543.429708 6055.149841 185 192 206
-2269.534874 429.842663 5872.415161 223 224 220
-1885.768890 447.337770 5914.031601 104 101 93
-241.283965 542.320824 6080.816269 194 212 213
-2240.053558 438.096619 5901.177597 81 79 77
2696.658707 -1895.695305 3098.228073 71 82 82
-2263.689613 323.317647 5759.280777 226 230 228
-652.594805 526.734400 6064.867401 37 38 42
-2248.958015 400.128078 5889.800644 62 66 61
-478.690672 520.356035 6094.520950 33 36 37
-478.690672 520.356035 6094.520950 33 36 37
1617.773819 628.465796 6287.017822 165 176 186
1617.773819 628.465796 6287.017822 165 176 186
-188.372815 517.072582 6139.681244 200 218 218
1593.353748 610.265207 6301.077271 162 171 172
1956.400871 633.767271 6344.685745 73 46 50
29.599947 505.550671 6164.250183 197 202 231
2088.050652 628.170395 6347.908401 43 30 51
55.773306 503.503275 6180.857849 173 183 209
3121.963120 -2072.750473 3318.903351 159 166 195
1564.533997 594.122076 6321.411514 171 178 174
1564.533997 594.122076 6321.411514 171 178 174
-2357.465553 329.913306 5974.076080 121 107 98
89.594549 487.128830 6188.883591 29 27 33
-265.256739 470.393944 6170.969391 108 149 162
-1920.138359 337.912893 6014.576721 45 49 50
87.184495 465.633965 6189.885330 99 121 132
-759.448290 425.835705 6149.830627 194 196 206
-2306.114960 321.136093 6049.605942 255 235 213
-396.658945 442.165041 6198.830414 189 194 197
2775.128174 -1735.219765 3450.661850 26 29 28
1509.380150 568.206120 6357.865143 168 187 190
-2202.607918 305.161071 6041.011429 213 204 225
-2220.100212 292.911506 6046.720505 110 106 134
2681.622124 -2008.777046 3062.428665 171 174 196
-2132.095528 269.343019 6083.192062 244 216 201
-2059.875488 273.906231 6088.217545 230 234 228
-2015.694427 266.611338 6097.570038 50 53 50
-2015.694427 266.611338 6097.570038 50 53 50
970.487118 490.018272 6338.421249 177 190 192
-2078.832817 262.738991 6100.753784 241 239 234
393.293118 428.729677 6299.325562 38 36 35
393.293118 428.729677 6299.325562 38 36 35
-2152.263832 242.205501 6109.631729 126 118 131
-2083.967209 248.474646 6124.184418 61 59 55
-2328.122902 257.737756 6162.725449 84 90 91
-2115.383720 242.598462 6139.865494 99 96 89
-2165.596581 226.876855 6135.334015 254 244 221
-2247.214699 240.300918 6175.534439 114 107 97
-2113.150024 220.171905 6153.865051 181 178 181
-2252.602386 224.195504 6172.870255 195 218 232
-614.648962 325.083733 6265.824509 35 36 33
1356.983280 461.796665 6392.782593 163 178 187
1356.983280 461.796665 6392.782593 163 178 187
-2097.955132 205.545020 6165.559387 163 160 168
-2152.563858 207.877254 6190.655136 232 226 240
444.839621 374.832106 6355.884933 188 201 203
3194.391060 -1782.742882 3351.456833 85 124 118
-1597.796726 171.035087 6235.773087 210 217 214
67.440182 345.650339 6395.085907 187 199 221
-603.341389 259.826469 6316.999817 211 223 222
395.868731 338.645625 6387.995529 37 34 32
-291.346073 303.059101 6388.893509 96 142 151
230.161357 303.680968 6426.113892 174 184 195
1360.916805 378.034973 6463.178253 176 191 198
1400.911999 372.220159 6518.195343 102 130 131
2009.276581 390.436053 6521.693420 172 196 204
1424.487495 339.357090 6512.733459 22 27 26
-463.336658 188.114226 6459.799957 145 188 197
713.561153 271.851015 6487.343597 34 28 21
1399.505043 310.407281 6516.461182 68 92 99
-987.153244 95.554662 6421.604156 155 154 179
1637.665367 323.313951 6522.988129 174 186 172
341.532016 217.686224 6501.561737 194 198 222
1371.528053 288.320017 6541.802216 90 118 119
-920.348549 67.878282 6451.882172 178 178 142
198.839760 171.725714 6496.119690 123 166 188
-1609.466362 -2.600650 6444.669342 225 232 229
-842.554665 50.112528 6458.236694 164 166 136
-867.988586 31.794399 6477.093506 84 77 62
-859.712124 30.453360 6495.052338 45 47 55
-873.256969 19.057417 6492.098236 184 185 214
192.558885 130.578470 6542.249298 142 180 199
1829.145622 284.361529 6592.740631 83 120 130
2129.512215 324.638152 6617.802429 167 205 217
452.023745 127.362823 6545.740509 75 104 127
430.732965 122.290242 6545.529175 198 202 226
1263.744450 227.002668 6602.553558 112 134 131
156.580269 101.915109 6553.636932 66 82 81
1574.149895 234.268260 6579.081726 169 182 173
1805.818558 260.908198 6590.422821 75 106 115
-756.046534 4.803030 6566.915131 152 194 201
532.528019 90.658718 6536.942291 76 112 134
210.371757 44.981781 6647.268677 199 209 209
-73.445958 11.027823 6645.474243 201 207 212
1396.035957 142.013144 6686.134338 177 192 194
-803.886414 -130.288684 6644.187164 140 145 188
566.177988 28.393704 6676.698303 42 36 39
-432.671833 -100.381982 6666.339874 92 92 69
-744.784546 -143.696070 6657.854462 49 75 102
554.977226 13.958736 6689.346313 183 183 202
-503.543806 -154.145122 6716.841888 129 131 101
-587.094259 -184.855783 6705.327606 116 118 89
-587.094259 -184.855783 6705.327606 116 118 89
-431.549644 -166.164279 6747.808075 198 210 208
-485.854340 -190.107477 6736.265564 202 215 212
-707.461739 -221.225381 6752.654266 184 187 212
1892.176628 101.593411 6788.283539 75 116 131
-1190.360641 -342.866564 6782.240295 27 33 30
-1300.618362 127.092588 7905.760193 220 224 223
-1153.450871 -369.090486 6785.297394 220 224 222
-1153.450871 -369.090486 6785.297394 220 224 222
345.734906 -170.673883 6781.858063 45 35 38
345.734906 -170.673883 6781.858063 45 35 38
2857.678223 -2139.938927 3151.943207 162 166 164
-1110.857964 -365.830946 6810.046387 56 49 46
342.692089 -175.842059 6814.628601 41 34 31
559.073400 -161.755848 6825.231934 197 209 211
-1056.994724 -397.159028 6829.772186 151 151 123
378.088713 -192.618823 6836.258698 42 32 32
-968.351078 -388.012934 6854.555511 153 154 125
1435.128880 -66.535234 6848.245239 79 120 134
1370.738602 -100.564408 6837.179565 196 208 212
-1339.444447 -468.636131 6954.755402 82 73 75
1403.105354 -97.736675 6876.549530 69 106 120
1730.214882 -51.224685 6888.429260 122 166 179
-1354.848480 -480.494928 6980.371857 246 247 243
-1347.846508 -482.438898 6977.523804 246 247 243
-437.338352 -382.926941 6914.339447 62 50 44
255.561829 -288.323474 6913.489532 203 209 208
2941.381454 -2365.555382 3117.518425 19 20 18
2941.381454 -2365.555382 3117.518425 19 20 18
-147.286582 -347.720957 6959.645844 203 211 211
263.920522 -314.936876 6910.888672 37 31 27
1258.457375 -159.419703 6940.522003 190 199 203
3464.765930 -2507.714081 2899.185753 122 123 143
220.097804 -383.077598 6994.544983 221 226 224
220.097804 -383.077598 6994.544983 221 226 224
1956.356621 -128.028107 6920.281982 160 163 187
1349.127769 -261.206865 6965.833282 70 99 113
1725.543976 -213.296437 6982.226562 195 211 218
1202.884579 -367.942357 6939.673615 200 207 210
1684.221840 -257.459593 6978.527069 189 206 212
284.935284 -497.511196 7047.721863 41 34 29
284.935284 -497.511196 7047.721863 41 34 29
-293.252587 -589.210320 7108.248901 55 49 36
263.875651 -506.094933 7087.648773 42 38 29
263.875651 -506.094933 7087.648773 42 38 29
-712.270689 -679.613447 7160.514069 47 38 43
1406.930733 -374.716353 6978.232574 70 102 114
2926.788139 -2372.079849 3149.763107 19 20 18
1347.775650 -378.063655 7038.748169 213 226 225
1097.257233 -509.159136 7130.010223 188 189 212
-410.584593 -794.624662 7242.853546 184 184 205
-259.894347 -781.357861 7251.058960 213 216 214
-118.178391 -783.052444 7252.403259 217 216 212
682.501936 -665.154982 7215.175629 220 222 222
672.546434 -686.724997 7226.688385 50 38 39
672.546434 -686.724997 7226.688385 50 38 39
2471.806335 -1668.775558 4580.357742 199 208 209
980.974102 3604.595947 3302.527237 48 78 82
3924.962234 -4357.624817 2770.096970 201 211 205
809.017944 3633.509827 3200.997925 175 174 200
987.273026 3541.873550 3351.661682 206 217 215
901.529312 3578.775406 3311.759567 212 220 220
901.529312 3578.775406 3311.759567 212 220 220
772.958803 3660.071564 3228.632736 57 57 61
979.886627 3535.954285 3405.141449 104 107 126
774.193525 3636.437607 3250.069427 180 178 206
911.731243 3541.248703 3371.236420 173 175 200
2788.216400 2368.999672 4747.866440 36 31 34
1322.904587 3278.752518 3705.240250 33 30 26
1322.904587 3278.752518 3705.240250 33 30 26
1291.597462 3270.983505 3719.802475 125 124 97
3501.873016 -4016.616058 3070.707130 213 221 221
2997.423553 2261.740303 4954.306030 180 188 191
929.335880 3420.074844 3441.315460 175 175 209
783.318377 3543.844223 3358.893204 174 175 203
867.231655 3488.145065 3423.921204 45 47 57
2950.667000 2154.919052 4876.114273 161 158 183
-705.071020 4339.132690 2284.492874 174 179 203
-2.469899 3869.478989 2799.420547 176 193 195
-25.720659 3960.391998 2845.340347 54 61 55
839.113808 3442.844009 3462.394714 202 212 212
-864.455795 4413.179779 2245.154762 83 120 112
949.857616 3370.104218 3549.971390 193 205 205
-94.990396 3960.132217 2820.626259 50 62 55
-138.592649 3985.992050 2799.283409 78 115 110
4011.602402 -4376.876831 2778.606224 115 147 136
-153.638041 3868.032455 2845.163345 42 55 47
-472.332859 4041.352463 2675.696564 171 190 192
-472.332859 4041.352463 2675.696564 171 190 192
2.799334 3760.705948 3025.070572 165 173 190
-313.660812 3981.632614 2839.307213 149 175 181
-313.660812 3981.632614 2839.307213 149 175 181
2876.332855 2091.399574 4987.793350 169 169 199
2203.204346 2555.094910 4580.184937 99 135 129
2251.376534 2476.878166 4605.458832 152 154 185
1921.441460 2668.609428 4406.267929 201 212 212
2222.470856 2482.716179 4635.805130 35 33 27
-338.195395 3881.854248 2944.912338 159 183 189
1894.706917 2635.858727 4448.542023 203 214 216
1903.569031 2617.000008 4495.346451 198 208 208
-553.731918 3795.846558 2807.742310 101 106 85
-76.434582 3579.323196 3171.668243 46 52 48
4773.889923 -4910.609055 3184.850883 125 124 102
-395.514131 3699.768829 3020.319939 167 189 194
2861.406517 1778.932190 5066.748047 199 208 212
2567.713165 2200.713348 5023.276138 179 190 194
1219.435692 2808.076859 4131.966782 200 211 209
940.397167 2965.069771 3972.288895 201 213 213
947.382355 2946.693611 3972.718430 201 213 213
3837.807083 -4375.511551 2908.814049 144 141 136
-941.611004 3862.935257 2768.892670 143 171 180
686.281681 3037.871552 3828.511429 202 215 217
-1504.835224 4112.664795 2414.944458 194 206 206
154.902613 3265.650177 3502.158356 180 171 162
690.912676 2995.972252 3859.881210 30 33 31
-195.720708 3477.891541 3314.754868 177 194 197
-405.146599 3461.695099 3184.289932 165 177 204
-540.857792 3555.269241 3120.427132 68 79 84
-479.752398 3554.459763 3199.307823 167 178 205
462.573338 3046.182823 3790.604782 23 28 26
1059.637165 2731.908798 4174.677658 196 209 207
2443.812561 2024.779701 5045.807266 198 210 213
3873.448944 -4686.995316 2436.215782 182 199 202
2238.315773 2099.653244 4989.094162 182 193 197
2022.603798 2186.640739 4905.442047 85 122 114
2265.689278 2045.856476 5056.720734 188 198 198
2090.257454 2108.838463 4948.431015 176 188 192
3835.250854 -4124.164200 2550.815201 198 203 206
2284.317017 2010.983658 5099.190903 39 38 40
2817.428017 1716.195869 5404.533005 203 207 212
-2004.524422 3928.702545 2462.322235 167 169 202
-1222.207832 3627.594376 2982.637024 121 149 159
1535.878181 2350.649834 4673.707199 189 202 204
2816.286278 1698.983765 5433.829117 41 33 34
3142.649269 -2882.293701 3264.131927 209 221 223
2141.003609 2067.699242 5080.735397 94 99 78
-779.281855 3303.202438 3336.098099 74 97 99
-1841.957855 3751.683426 2716.915321 196 211 213
-2392.489624 3998.529434 2399.294090 92 103 111
-1528.354931 3599.462509 2939.437485 170 191 193
1485.608864 2240.886688 4782.443237 177 179 193
-34.406531 2885.874176 3888.029099 138 193 204
4540.710449 -4700.582123 2682.316589 187 168 155
-1173.326206 3364.212418 3247.767639 68 77 81
1372.040462 2253.648758 4733.307648 177 184 201
399.890399 2617.745590 4134.206009 183 171 162
2049.284744 1942.286682 5136.714554 156 179 190
1246.405888 2260.421371 4701.219940 35 38 23
-21.822424 2786.397552 3957.615662 188 181 173
-21.822424 2786.397552 3957.615662 188 181 173
633.317757 2505.580330 4335.625076 138 193 205
2867.684555 -2513.953400 3147.139740 33 30 26
3028.889847 -2648.573875 3297.642517 156 179 186
321.498871 2631.998444 4174.233246 191 207 206
19.468334 2748.915672 3994.457626 32 36 33
-51.175398 2773.287773 3958.927917 68 67 63
3643.354797 -3851.062775 2945.890236 38 29 22
1521.456432 2111.804199 4877.082825 193 202 205
1558.666706 2103.659058 4903.831482 181 193 194
1520.346832 2107.400703 4875.760269 190 199 202
-3.225642 2744.597054 4004.690552 195 207 206
1762.456322 2003.431129 5024.533081 175 190 196
496.577740 2532.566261 4300.786972 43 40 31
1600.288391 2049.943924 4926.679230 80 120 110
-1488.531208 3345.037842 3190.746689 161 186 194
1588.455868 2061.038208 4958.864975 86 128 117
1378.504372 2127.859879 4830.933762 183 186 201
1378.504372 2127.859879 4830.933762 183 186 201
1387.775612 2225.766563 4916.532898 168 174 193
1161.275101 2221.808624 4713.278961 127 129 109
355.809522 2524.310493 4250.809479 183 171 159
366.193008 2501.187706 4247.893143 183 171 159
385.845709 2527.548599 4286.080551 46 41 39
1373.906994 2108.349991 4846.000671 61 65 74
3388.087845 -3420.610046 3148.425865 152 165 166
1429.488087 2088.522911 4885.889435 168 174 193
1429.488087 2088.522911 4885.889435 168 174 193
-107.840836 2717.738342 4020.332718 190 203 202
1575.438213 2028.700066 4976.876831 24 31 30
1789.910507 1903.670311 5074.141693 170 185 188
1139.760685 2209.674835 4745.031738 172 176 195
1245.447350 2147.506332 4792.974472 171 176 190
2136.523819 1771.960258 5313.690186 209 221 223
2136.523819 1771.960258 5313.690186 209 221 223
17.641997 2630.730247 4120.526886 200 209 210
1232.435799 2134.970093 4811.817932 58 64 74
1174.966335 2158.187675 4783.870697 45 49 63
1174.966335 2158.187675 4783.870697 45 49 63
1147.094917 2174.939346 4776.705170 165 170 186
8.109915 2609.959412 4133.771515 64 61 58
672.226095 3731.412125 5500.155640 137 143 158
1264.621162 2098.920250 4838.297653 174 190 196
-42.679298 2630.030632 4115.719604 183 175 167
-42.679298 2630.030632 4115.719604 183 175 167
1534.847260 1997.365189 5002.697754 37 41 46
1534.847260 1997.365189 5002.697754 37 41 46
1219.570160 2130.867577 4833.143997 172 183 191
1445.668125 2035.471344 4961.675644 39 43 49
1132.438660 2150.802040 4781.050110 20 15 20
936.898994 2240.456581 4688.807297 109 112 89
-342.467093 2723.907280 3954.919815 35 55 50
1095.023918 2148.519516 4757.285309 35 33 29
2145.837212 1736.895370 5356.242752 37 33 31
1809.663963 1863.875008 5163.204575 167 181 184
1409.613323 2016.186333 4947.868729 165 173 186
1409.613323 2016.186333 4947.868729 165 173 186
1091.656399 2140.493965 4780.033875 158 165 184
1375.504494 2019.072151 4958.476639 60 60 72
1424.907875 1991.288948 4983.522797 36 36 40
944.231510 2176.650047 4724.984360 186 202 201
-138.582575 2567.275238 4103.292084 209 215 214
2177.509308 1685.012436 5413.220215 177 178 211
1179.759789 2068.640137 4863.933563 161 170 189
1193.597794 2061.056137 4885.010147 18 18 26
1193.597794 2061.056137 4885.010147 18 18 26
2524.701881 -1763.551521 3382.386398 203 211 210
1132.233047 2092.921829 4869.949722 21 27 31
83.163786 2461.995697 4268.460464 178 192 189
1253.884125 2028.414345 4937.205505 166 183 192
1197.573185 2018.948746 4891.278839 157 165 185
1215.683270 2019.193268 4911.319351 18 28 35
-751.643658 2782.046318 3840.590668 59 74 68
4170.036316 -4653.606033 2242.780113 196 198 216
-172.042918 2546.458244 4166.972733 56 56 50
3362.669754 -3378.404236 3152.939224 26 26 21
2182.866859 1633.149719 5458.929062 35 28 27
1126.993656 2029.159546 4878.269577 44 47 55
-679.956484 2719.672203 3896.443558 46 57 45
735.430193 2183.184052 4673.633957 195 206 206
1099.674892 2044.085503 4879.113770 155 167 173
1099.674892 2044.085503 4879.113770 155 167 173
1185.149860 2007.316208 4926.055527 137 143 158
1419.014645 1920.744133 5060.985947 139 151 155
-743.541718 2763.236237 3902.743149 117 152 142
1259.193134 1979.386330 4973.025894 50 56 70
1259.193134 1979.386330 4973.025894 50 56 70
1166.542816 2006.939888 4917.733002 31 34 43
1166.542816 2006.939888 4917.733002 31 34 43
1217.757225 2000.574684 4959.734344 146 153 170
-126.509488 2492.947006 4216.738129 194 206 203
-2.801250 2454.268074 4297.945023 45 45 43
1428.809547 1906.507111 5073.683167 155 172 178
1428.809547 1906.507111 5073.683167 155 172 178
1386.024380 1916.231537 5049.141312 147 160 176
1283.738708 1948.136330 4993.055725 143 149 167
1408.934689 1904.723167 5066.293335 38 43 49
1184.940434 1977.371025 4941.131210 144 151 171
1172.700405 1989.082718 4960.381699 158 164 180
1287.448215 1924.728203 5006.279755 145 149 168
1293.221188 1936.208916 5031.890488 36 39 53
1562.625790 1840.410614 5190.192032 175 192 193
-871.909809 2716.435623 3855.480957 47 53 44
920.838356 2061.291695 4833.821487 22 32 31
1378.942490 1871.481895 5090.547943 151 165 185
2223.786545 1541.341305 5555.804825 178 192 195
1324.630356 1881.288338 5097.782516 157 175 182
2233.834267 1498.354912 5544.159317 178 192 195
205.126595 2259.470749 4491.973877 194 206 203
567.845535 2130.411530 4690.762711 201 212 211
93.680030 2288.984871 4445.000076 53 54 37
1303.363991 1876.948166 5110.845566 37 37 37
583.408642 2109.999466 4712.398911 41 42 42
583.408642 2109.999466 4712.398911 41 42 42
1300.510311 1836.059189 5087.607193 120 120 120
1324.167919 1843.710709 5117.283630 138 156 162
1118.957901 1907.111549 5000.311279 169 183 184
3158.010101 -3077.860069 3229.015350 153 167 169
450.168419 2133.402634 4667.443466 65 62 54
1870.308876 1692.303276 5475.350571 121 121 97
2135.441208 1528.466320 5565.327835 123 123 99
2135.441208 1528.466320 5565.327835 123 123 99
1120.506477 1891.491890 5029.369736 50 51 51
2132.428551 -70.022857 4250.827789 197 208 208
450.527048 2111.191750 4705.737686 119 120 102
4395.743942 -4296.679306 2853.530693 54 53 54
2433.232880 1381.131268 5740.597534 42 37 39
2911.245728 -2785.538864 3221.602631 53 54 37
2179.573631 1467.523003 5639.649963 40 39 36
3263.586044 -3242.233276 3193.985939 26 26 21
1071.732235 1845.030022 5066.588593 39 41 40
1300.693130 1765.486336 5189.046097 37 37 37
2192.496109 1464.639091 5665.434265 180 195 198
2196.279335 1439.005280 5652.925873 180 195 198
2196.279335 1439.005280 5652.925873 180 195 198
2380.637741 1349.010181 5745.622253 162 175 183
691.244793 1944.416428 4903.443527 65 82 85
636.505461 1199.820614 4238.021851 53 54 37
450.873375 2009.584999 4781.621933 35 36 33
1294.337845 1726.030350 5218.477249 127 125 125
3469.104385 -3478.770828 3049.839783 187 196 197
2416.940880 1315.652466 5809.918594 40 40 41
1236.584091 1714.304543 5240.134048 144 139 136
1236.076355 1716.620827 5241.469955 144 139 136
1292.266560 1669.736099 5275.299835 145 161 167
1292.266560 1669.736099 5275.299835 145 161 167
1011.256504 1758.317566 5132.814407 155 170 173
4507.396698 -4462.334824 2722.032356 35 29 37
1046.326065 1753.979492 5163.097000 138 134 129
1226.234341 1677.657318 5244.732285 153 148 145
3610.648727 -3713.774109 2955.555344 136 133 112
-13.453980 2088.062859 4634.764481 189 201 199
-13.453980 2088.062859 4634.764481 189 201 199
1633.407211 733.345461 4932.127762 160 150 142
1237.426090 1663.219452 5262.088013 40 36 34
924.658489 1756.685638 5104.824448 169 184 186
924.658489 1756.685638 5104.824448 169 184 186
1203.536701 1634.680939 5289.497757 131 128 122
423.814583 1868.790817 4927.975464 31 34 31
1180.246067 1624.924088 5303.807068 24 27 26
1180.246067 1624.924088 5303.807068 24 27 26
3614.630890 -3674.588394 2866.571999 166 166 193
1103.669453 1646.579361 5272.332382 158 173 175
1139.473534 1614.947510 5291.192245 160 175 174
800.278759 1734.482384 5136.207199 160 173 175
1410.954571 1530.881596 5434.121323 160 150 142
993.364906 1657.591057 5246.623611 159 172 171
993.364906 1657.591057 5246.623611 159 172 171
854.949474 1699.269676 5202.585602 154 150 145
2348.335457 1208.965588 5913.984680 60 53 74
979.395676 1641.097069 5254.140472 24 24 24
977.385521 1620.966339 5265.489578 151 146 142
1706.011391 1374.293232 5641.633987 111 115 93
1706.011391 1374.293232 5641.633987 111 115 93
1059.518528 1568.878269 5333.063507 30 32 30
1103.651714 1541.867828 5361.992645 170 182 182
1103.651714 1541.867828 5361.992645 170 182 182
1561.391449 1028.456306 5256.018448 177 165 157
1027.842045 1523.698807 5370.714951 165 178 180
1027.842045 1523.698807 5370.714951 165 178 180
1003.470421 1525.282669 5360.683060 44 42 40
832.815456 1555.144882 5293.908310 57 82 89
2289.994431 1131.883907 5989.369583 49 42 52
690.043688 1602.787590 5238.846588 150 149 143
1125.994015 1462.864017 5452.393341 29 28 23
692.315483 1579.833412 5257.414246 46 48 45
692.315483 1579.833412 5257.414246 46 48 45
716.415310 -452.973747 3341.493988 71 125 135
823.677921 1534.164619 5318.913269 160 172 176
820.664597 -618.128920 3264.316177 44 71 71
658.151817 1578.025723 5252.251434 155 166 167
2444.065857 1034.018421 6088.152313 195 206 210
823.791695 -625.305700 3294.905853 39 56 61
808.130741 -566.368341 3353.940582 71 125 135
2196.968842 1103.837109 5998.912811 176 176 204
2211.210060 1099.392319 6005.174637 71 32 38
2349.402809 1055.387115 6065.022659 118 166 190
2181.800652 1108.869171 5997.309113 59 37 44
1050.425053 1428.209400 5476.046371 176 188 188
2450.481033 1025.458145 6116.257095 194 207 212
821.351147 -631.866360 3315.826797 38 62 58
821.351147 -631.866360 3315.826797 38 62 58
885.280514 1463.766479 5402.953339 38 38 33
885.280514 1463.766479 5402.953339 38 38 33
1190.591812 1380.786324 5554.612350 179 191 191
1190.591812 1380.786324 5554.612350 179 191 191
801.487923 -548.270988 3398.805618 34 45 51
2173.620987 1095.194626 6012.609100 69 36 41
895.288181 1446.964073 5420.745468 152 165 166
2144.736671 1089.142704 5994.154358 98 80 107
801.444530 -549.130249 3408.658218 23 46 49
786.890268 1466.331387 5380.006790 35 35 31
2180.672836 1077.921867 6020.048523 171 170 188
2209.853935 1088.375759 6058.516312 170 170 200
820.829582 -686.239386 3307.489014 61 68 65
779.305410 -453.041840 3510.091782 25 38 41
774.049711 1452.030563 5389.867783 144 151 151
774.049711 1452.030563 5389.867783 144 151 151
2187.532616 1058.555508 6034.600830 169 171 199
801.921082 -604.988480 3387.773514 23 40 41
803.714180 -606.939888 3388.236618 23 40 41
1043.362522 1394.524193 5541.315842 38 40 34
2166.760635 1067.976665 6041.700363 69 33 38
816.485119 -708.647776 3304.616547 36 58 56
730.214119 -222.478986 3732.265854 37 42 41
2179.231262 1035.444450 6033.621216 174 175 205
742.465496 -201.224375 3778.408051 53 54 51
1049.370670 1349.839687 5546.717834 171 162 153
715.803337 -128.792870 3850.345612 157 159 157
2111.387825 1055.662727 6039.876938 77 51 67
786.231852 -568.366671 3465.765381 68 137 152
720.082808 -166.197824 3820.625305 57 59 55
1810.286140 -118.146479 4672.156906 158 150 149
718.631744 -122.218335 3874.393082 146 147 144
789.362621 -556.311941 3496.757507 29 42 53
816.567898 -702.059269 3377.866364 38 52 50
-276.748538 762.424088 4092.137527 179 179 179
2206.978416 1001.920700 6091.473007 78 45 54
810.447216 -749.326992 3331.950378 39 63 62
798.100328 -633.161831 3446.291733 23 37 42
711.126518 -133.194947 3896.836853 154 155 151
783.561897 -576.085424 3514.545059 51 111 123
733.832598 -240.865993 3820.974731 46 48 49
2182.904053 995.600510 6111.363220 192 195 220
1198.226357 1245.260525 5667.695999 40 35 27
2251.075935 964.456081 6137.548447 57 44 65
2251.075935 964.456081 6137.548447 57 44 65
2285.607910 951.127529 6160.792923 71 67 93
803.790665 -761.559534 3367.727280 34 57 53
2249.007225 957.899570 6154.582977 176 177 205
1119.174194 926.211357 5507.371140 41 40 39
1922.446251 1039.822006 6017.505646 103 102 134
2158.117485 981.379986 6125.294495 118 111 135
717.987633 -295.168447 3805.831909 57 57 57
2185.627747 953.413677 6124.143600 174 170 193
783.258200 -594.681501 3546.666718 28 68 82
783.258200 -594.681501 3546.666718 28 68 82
807.865143 -792.058420 3368.031311 36 65 59
791.315031 -794.230986 3372.467422 61 147 163
2206.420898 942.777538 6159.675980 79 45 42
2169.411469 949.487686 6146.143723 86 55 61
749.575663 -545.972157 3605.603790 66 103 117
637.894440 191.892922 4298.147964 112 114 114
2320.234489 909.162235 6223.359299 54 91 123
642.824316 197.745228 4315.653229 101 103 103
2054.473114 983.931732 6121.450806 174 170 198
635.463285 212.313581 4333.574677 43 45 45
582.470798 492.672539 4593.358231 16 17 16
582.470798 492.672539 4593.358231 16 17 16
574.722481 538.497829 4638.323212 38 39 37
714.587975 -303.391123 3862.189484 153 152 154
2202.943039 921.138859 6178.335190 174 176 203
444.074535 1228.973961 5283.669281 136 136 136
2092.124176 944.289589 6140.983963 169 167 197
637.507439 159.850895 4315.913010 108 109 107
2180.560875 925.494671 6188.496017 104 95 110
649.132061 41.648716 4212.525177 35 33 32
649.132061 41.648716 4212.525177 35 33 32
618.616104 219.509506 4380.421066 28 29 27
619.465637 226.783276 4389.574814 108 109 107
638.218880 130.717337 4304.800415 105 103 102
625.100565 199.800014 4369.628143 107 108 106
364.556336 1386.087418 5444.419098 38 46 46
583.863354 485.603762 4644.353104 117 123 120
691.892958 -215.515351 3983.609390 41 43 44
480.949402 1071.258068 5189.654541 45 47 47
2201.854897 896.240139 6199.475861 159 158 188
2127.711105 915.893841 6177.938461 198 194 215
2127.711105 915.893841 6177.938461 198 194 215
595.882702 382.617497 4565.110016 100 100 100
450.081730 1157.135677 5284.957123 168 166 168
632.183838 74.155056 4270.425797 42 40 39
2210.196114 894.178391 6223.021317 96 93 118
796.558571 1229.809380 5611.734390 41 37 24
2363.291740 731.312656 6136.077881 54 91 123
717.836523 -464.373446 3766.976929 148 147 149
682.411194 -241.396427 3981.277466 41 43 44
2106.306267 918.131065 6191.384888 94 78 101
573.198938 451.595068 4647.990417 125 123 122
573.198938 451.595068 4647.990417 125 123 122
2186.491585 890.471458 6219.232178 59 39 59
451.699066 1134.114456 5291.822433 154 155 157
660.699224 -103.210974 4125.220871 107 108 107
426.201820 1335.913467 5494.781494 111 123 125
554.911375 545.624399 4746.014786 107 108 106
2092.355728 910.102367 6185.770798 162 162 188
578.347015 427.402782 4641.565323 32 33 31
476.709414 979.755688 5169.090271 30 32 32
649.649858 -55.519772 4186.907959 111 111 111
436.877918 1202.339268 5383.082962 34 38 43
2139.620209 885.740948 6213.080215 69 39 39
688.527966 -370.566130 3885.572815 43 39 40
562.469292 451.546717 4679.317474 27 25 24
684.630203 -356.037116 3900.380325 50 47 49
684.630203 -356.037116 3900.380325 50 47 49
700.961637 -457.371283 3804.150009 163 163 163
575.384808 400.052166 4640.877914 120 121 119
694.842720 -354.493022 3914.904404 52 54 55
2128.024292 872.603798 6204.469681 185 174 196
625.397301 28.062072 4279.652786 115 116 114
633.159828 -15.997426 4239.337540 149 149 149
1292.342472 1083.250523 5870.220566 116 118 96
561.786079 457.404327 4704.783630 31 30 28
472.742224 979.545307 5205.484009 102 104 104
554.881239 508.450699 4757.772827 119 120 118
626.300573 -9.381721 4256.019211 47 47 47
1640.078163 982.615948 6018.186569 188 200 202
500.629473 847.900391 5101.415634 82 82 82
590.414286 165.196288 4432.245255 55 56 54
675.750828 -377.626944 3906.191254 173 173 168
747.297049 -895.439148 3397.373199 98 178 186
-728.660488 917.403221 4341.798401 214 213 205
689.000797 -470.635557 3822.406387 185 188 189
626.213741 -34.618750 4250.437927 114 113 115
2207.058716 835.544300 6257.026291 169 170 194
678.604937 -391.062379 3905.598068 103 100 101
-37.586048 257.803702 4121.362686 54 48 47
738.534832 -882.504272 3418.994904 19 78 63
2041.862679 869.787216 6193.427658 172 184 188
617.822123 7.438458 4306.184387 51 51 51
515.277243 1863.087273 6191.875839 191 201 199
557.174063 365.250063 4660.426712 42 43 41
732.265377 -907.424259 3399.922180 78 163 178
578.545475 196.831691 4495.544434 120 119 118
626.978874 -119.477379 4186.795807 111 113 114
626.978874 -119.477379 4186.795807 111 113 114
529.694557 539.893150 4842.124557 24 25 23
536.680841 464.968824 4765.726852 145 143 142
1623.280907 -81.160128 4904.415894 171 162 153
634.887695 -171.015692 4144.085693 154 157 156
634.887695 -171.015692 4144.085693 154 157 156
553.811979 357.963037 4667.170715 26 25 25
394.997764 1266.535473 5555.537796 22 45 65
527.026176 523.061514 4836.011124 122 120 119
545.538568 1197.758865 5589.262772 138 146 147
