ply
            format ascii 1.0
            element vertex 10767
            property float x
            property float y
            property float z
            property uchar blue
            property uchar green
            property uchar red
            end_header
460.025358 275.980616 1825.956535 216 222 227
421.369982 40.278849 1655.201340 12 27 50
459.165335 267.655301 1820.505333 214 219 225
798.079205 -1412.496853 3672.012711 54 52 51
415.959120 33.579358 1593.156624 12 27 50
923.459339 -349.607158 4082.514191 65 69 70
221.165895 159.597373 710.982084 80 17 9
464.683342 896.214008 1653.496361 66 68 79
464.683342 896.214008 1653.496361 66 68 79
230.676055 -48.956531 354.277158 76 68 62
811.025620 -1363.068485 3598.377609 135 132 133
870.151997 -1084.778595 3819.781494 99 105 113
284.164357 137.286448 899.847698 189 181 171
953.590870 -833.467770 3947.496796 112 118 123
923.740482 -1000.730324 3758.225250 117 127 135
970.544147 -1281.549168 3988.026428 30 31 31
878.738117 -1380.593014 3600.909042 45 40 81
364.933562 460.681057 1144.938850 26 7 2
1056.011391 -597.384405 4177.793503 57 60 66
1087.267780 -599.150991 4308.355713 54 55 57
940.169430 -1041.339111 3760.689545 111 121 131
980.705738 -1330.032158 3976.013184 87 88 92
931.828499 -1153.695393 3740.163040 37 39 43
952.605343 -1260.502625 3826.555252 93 94 99
938.542843 -1259.409237 3752.505875 87 88 92
710.442162 401.798820 2534.198570 144 152 164
895.244884 -1341.095066 3534.642792 110 117 125
720.095348 393.653703 2520.426178 225 237 240
975.393963 -1249.447632 3796.598434 44 41 57
1065.783310 -612.217617 4055.765152 68 76 80
385.177422 -4.530199 1240.499496 12 27 50
966.254139 -1271.746635 3753.690338 91 89 96
725.564384 391.647196 2525.225449 147 154 163
971.959305 -1265.144920 3759.873962 36 35 44
727.583361 397.274017 2521.493149 148 157 167
982.883930 -1221.354485 3778.456497 86 85 94
1004.372978 -1228.472900 3839.249802 37 36 40
918.982410 -1464.813519 3530.714798 58 58 65
736.691999 397.636223 2517.867279 228 239 244
1003.596687 -1256.056118 3791.125488 88 89 93
488.652754 -3.844173 1590.377140 176 207 223
1156.799316 -644.935036 4254.814911 68 70 70
215.050983 -60.137457 448.365831 66 66 66
496.065807 26.962510 1598.762512 33 41 58
494.971228 -0.869504 1589.838123 47 62 83
1024.075985 -1179.761696 3742.408371 99 95 100
501.610231 26.231605 1599.250889 221 232 240
1025.359726 -1203.696156 3737.852859 113 116 121
1042.266750 -1209.821796 3789.355850 49 47 53
1118.317127 -365.452194 3935.905457 60 62 63
1141.229057 -578.850842 4047.608948 15 10 10
308.524251 266.012168 788.037252 166 167 171
502.310896 5.529809 1590.705395 32 49 75
505.469131 21.599996 1594.781876 221 234 241
504.947138 15.646917 1592.195511 34 45 66
1189.606476 -388.950348 4149.894333 60 62 63
520.248413 981.252670 1496.857262 169 171 179
1069.837379 -1199.076080 3796.164322 98 99 103
1111.037064 -813.768196 3881.833267 105 103 103
363.517213 149.356663 939.136410 176 178 184
523.830891 990.986824 1494.635773 158 161 169
528.569889 986.511612 1497.662258 90 98 105
533.570719 984.564018 1504.109859 167 166 175
534.939861 987.981224 1495.629311 170 170 176
534.939861 987.981224 1495.629311 170 170 176
537.739086 981.272125 1496.184254 84 85 95
537.739086 981.272125 1496.184254 84 85 95
426.850224 310.807252 1158.323002 170 175 182
320.224047 152.529240 741.615391 26 10 10
588.829374 976.240540 1505.504990 168 171 176
606.330538 968.665695 1509.666443 82 92 99
201.471353 -77.842212 422.971487 218 237 244
323.204851 -67.963600 756.033945 16 28 45
218.666172 -141.088009 456.118679 117 123 130
251.880503 -60.889703 493.554974 8 10 20
253.465056 -50.501013 506.050730 8 10 20
264.713240 -35.310495 416.108942 48 44 43
254.007792 -56.244934 496.004105 8 10 20
380.225444 -193.401027 252.604032 30 42 55
-2031.967545 -967.758274 3550.260925 103 107 108
-773.298216 1092.763329 1925.837898 59 54 148
-2082.509804 -1371.352100 3974.901962 255 255 255
-1933.753777 -598.324776 3752.183151 68 55 53
-1926.098251 -575.558805 3786.588287 161 165 168
-2096.862602 -715.632343 4092.607880 209 233 238
-1923.745346 -560.161829 3819.639969 115 126 130
-2075.650215 -774.232388 4128.062057 165 174 174
351.242065 -209.838367 332.966185 158 163 171
-2104.966545 -743.666172 4221.597672 161 174 180
-2102.914429 -743.311024 4218.511200 161 174 180
-620.740414 787.789202 1816.498184 136 105 109
-2068.119431 -662.958002 4226.963806 253 255 255
2782.257462 869.413090 -3827.869797 182 185 186
-1822.649574 -1163.745022 4011.224365 206 204 207
-1822.649574 -1163.745022 4011.224365 206 204 207
-737.638044 -171.749818 2138.087273 152 171 186
-727.004480 -165.030932 2120.351791 130 153 166
-735.843992 -185.341728 2185.000038 149 161 174
-1746.492767 -1212.792206 4011.221313 213 217 221
-1384.513664 -776.979017 3390.295029 199 193 196
-568.183422 -111.143029 1919.362259 34 29 28
229.278135 -95.490730 634.077311 147 1 6
-1528.090572 -1070.433331 3718.801880 200 204 228
-1593.182945 -1057.568169 3801.380157 198 194 199
-431.990480 16.915645 1708.394623 149 177 192
-557.560492 -131.735492 2047.114563 163 184 195
-215.092063 286.105585 1400.546551 31 25 32
-550.562668 -144.235229 2076.079941 193 205 208
-552.562189 -136.999691 2086.390114 114 131 140
-1530.053139 -1443.887424 4121.634674 255 255 255
-1526.368904 -1347.796059 4142.685699 255 255 255
-1526.368904 -1347.796059 4142.685699 255 255 255
-637.638426 -270.648432 2396.766663 240 248 252
-1418.390083 -1413.978767 4069.823456 163 165 162
-169.006348 -199.173772 1347.571945 149 161 174
-629.769850 -274.655128 2403.495979 215 220 233
-634.442091 -285.659504 2419.209099 240 250 253
-630.525208 -285.441589 2411.937714 240 250 253
-543.521595 -198.682225 2228.619385 109 128 138
-748.914671 -918.222237 2660.599899 255 255 255
-70.559818 379.008508 1191.643143 99 31 5
-539.240789 -210.145807 2240.201759 83 86 90
932.541656 76.478440 -1208.725643 151 170 186
-289.482379 21.277732 1710.000229 162 188 202
-446.389818 -160.691917 2127.262688 132 149 161
91.805089 -226.117110 903.985786 130 149 160
-338.380337 -292.641020 1917.932320 60 61 64
-333.064580 -291.867971 1908.014870 60 61 64
-175.019240 -240.837359 2024.501991 41 37 38
-325.750136 -258.791184 1940.788841 90 116 116
-311.459684 -256.268120 1929.887199 88 114 118
-540.777445 -606.052446 2524.011040 153 162 158
-266.322422 -303.613710 1841.893959 101 100 116
536.245489 47.855231 -313.928795 245 248 246
-528.054667 -610.220766 2534.623528 115 108 101
-263.743973 -292.477536 1853.276253 108 112 127
-263.743973 -292.477536 1853.276253 108 112 127
-256.260943 -267.012024 1867.248344 47 48 51
-239.241886 -276.674938 1848.204041 85 97 110
-255.623031 -222.145295 1916.277122 104 113 116
-240.169215 -233.164787 1896.369743 56 57 60
-239.891291 -233.225250 1895.689011 56 57 60
300.967431 -143.669736 583.459997 77 26 12
-209.140396 -202.000594 1892.460251 106 116 116
-209.523511 -201.722479 1893.670654 106 116 116
-209.523511 -201.722479 1893.670654 106 116 116
-178.772473 -267.612457 1807.809639 59 64 67
-178.772473 -267.612457 1807.809639 59 64 67
-176.759696 -267.454505 1803.285408 59 64 67
-166.116333 -271.616030 1792.817688 75 80 83
-152.032435 -266.916203 1784.419060 61 66 69
-138.700795 -265.097475 1772.606468 57 63 67
86.429375 -365.961862 970.413494 228 226 232
-159.385431 -140.400219 1910.797691 114 125 129
-137.595916 -207.404566 1827.484131 43 43 43
-154.724872 -137.895501 1904.856873 67 79 83
-187.707019 -115.284443 2088.534546 69 76 78
-157.095456 -135.614848 1914.396095 104 116 117
-4.592365 123.013067 1437.379265 126 158 177
-48.833963 47.329658 1597.052765 46 53 57
-124.921155 -208.003426 1818.449402 103 105 106
4.751543 103.486395 1438.546181 67 63 64
-114.721489 -216.053152 1804.640007 81 84 88
-123.429894 -170.807862 1854.249573 119 123 125
12.807354 122.669542 1423.567295 148 183 199
-126.809394 -141.152191 1885.779572 39 39 39
10.711181 392.856932 1502.040577 73 27 17
-24.873464 71.566743 1559.648037 68 98 115
14.913915 128.186560 1425.876236 27 39 50
-118.987358 -159.128356 1862.618828 42 45 46
-127.003431 -114.495552 1908.990669 25 29 34
-127.165723 -114.353502 1909.589577 25 29 34
-112.943006 -155.871987 1856.683731 42 46 47
-333.058786 -423.239613 2636.258507 84 92 99
-112.612474 -124.686003 1887.810707 84 95 104
25.265801 123.642278 1425.508499 22 25 35
24.144958 118.880200 1428.178406 165 190 201
26.567543 131.793368 1423.514748 23 26 33
-9.708662 75.489235 1558.741856 31 44 54
-96.278960 -149.289036 1853.888702 39 39 39
-92.964524 -144.256902 1850.053596 104 114 114
-101.092863 -110.805774 1894.241142 39 50 54
-89.300728 -120.426106 1874.605179 29 31 32
-88.909090 -50.275236 1911.621475 172 193 201
-80.833185 -135.656226 1857.945251 42 42 42
-236.188340 -355.004025 2437.440109 162 160 159
-238.854742 -365.040445 2463.400841 54 48 51
-238.854742 -365.040445 2463.400841 54 48 51
-75.951284 -106.694484 1875.123215 75 90 92
-228.202653 -357.804775 2443.934059 67 63 67
-333.740711 -966.811085 2742.061424 255 255 255
-333.740711 -966.811085 2742.061424 255 255 255
-236.840153 -378.230929 2490.870667 108 106 106
-219.318771 -351.443577 2427.706909 61 56 65
-228.763676 -370.093250 2476.093864 74 71 73
50.233263 122.685993 1435.416317 77 99 130
-64.671147 -128.414083 1867.251205 170 173 168
-198.548698 -342.895103 2413.905144 248 253 253
-6.914079 102.900028 1869.399643 129 135 139
-104.776216 -185.489666 2076.444817 201 207 203
-202.666974 -366.160369 2484.771729 48 39 33
-198.273468 -371.388340 2485.944557 204 200 196
-176.539004 -344.100118 2421.791458 213 216 214
-51.394778 -107.114506 1929.331017 80 80 78
-193.338084 -372.204161 2507.351685 204 195 192
-182.964420 -359.078002 2466.876030 214 8 61
-182.964420 -359.078002 2466.876030 214 8 61
-169.568980 -339.436293 2416.415215 77 74 78
-148.486841 -309.836984 2333.118820 161 165 165
-132.373333 -288.733506 2280.950737 194 191 203
-196.333599 -395.358419 2560.791016 153 150 155
10.564432 48.598596 1768.544006 182 204 216
-186.641061 -388.782120 2546.370316 165 163 166
-28.497148 -88.358545 1902.593040 26 17 15
80.836999 374.689770 1546.668243 86 106 123
-144.292998 -325.422859 2387.875175 77 75 83
-173.204887 -377.528262 2513.310623 211 212 207
-152.432120 -346.895528 2442.497253 218 214 213
-107.258058 -276.451254 2248.272705 46 36 42
-18.915509 -96.992660 1902.594566 169 175 174
-141.534913 -341.333461 2427.948952 230 234 232
-138.972187 -349.013805 2447.770309 66 67 72
-13.925166 -106.701529 1909.762764 23 17 18
-13.628064 -101.007318 1914.230537 180 187 186
-122.582233 -332.694888 2404.295921 85 87 87
-122.582233 -332.694888 2404.295921 85 87 87
-74.489337 -258.626986 2205.646896 238 243 247
2.893574 -89.150071 1891.862297 25 20 19
-89.022207 -289.480519 2298.629761 58 57 63
-66.508389 -259.001255 2209.989929 239 243 244
-84.493834 -286.765480 2296.853256 226 228 228
-93.055022 -315.077090 2360.367203 63 59 64
-90.707034 -310.593653 2351.406288 227 226 229
-85.654986 -314.473128 2359.565735 210 211 215
-54.266441 -259.413743 2216.675949 228 237 237
-60.894907 -274.849296 2254.998779 246 250 251
101.116824 61.863577 1517.960930 131 136 135
-46.034530 -255.672789 2218.983078 46 46 46
-41.402686 -258.378363 2226.042938 196 206 196
-64.358002 -307.095647 2350.102234 227 237 238
21.999942 -104.811060 1951.811981 22 15 15
15.798250 -115.357780 1987.532425 45 51 52
15.908220 -146.657348 1983.904648 192 192 191
27.620560 -100.101936 1949.763107 21 22 27
3.522178 -147.169852 2140.132332 248 249 251
-93.982726 -411.159420 2647.848892 179 182 190
119.342375 51.369101 1537.626648 129 135 139
38.846338 -156.620204 1993.905449 45 44 47
238.634324 292.763090 1215.908432 14 19 21
40.538865 -153.049386 1991.017342 248 249 251
56.981981 -97.342002 1917.624664 199 204 202
0.767759 -259.445262 2216.740417 201 201 216
134.443593 56.433779 1550.616741 37 31 34
79.180962 -89.418459 1893.286324 200 205 204
82.134068 -95.429373 1908.080292 76 74 76
58.291525 -163.648057 2099.970436 217 232 240
99.298024 -87.894505 1888.082695 112 114 115
67.623293 -154.933083 2096.355438 105 126 146
62.042171 -284.339356 2064.802933 102 135 167
67.460877 -272.710156 2048.515129 35 120 182
120.154262 -90.106273 1890.854645 195 204 207
120.666933 -89.998776 1889.316368 195 204 207
-226.259303 -872.194958 4338.013077 255 255 255
-192.008531 -744.034433 4171.867371 53 38 44
134.731078 -58.682102 1862.836647 169 171 171
96.234655 -229.882073 2066.868401 34 66 152
118.637276 -130.681622 1944.369888 26 23 35
98.643488 -180.983078 2087.683678 48 48 79
-200.815749 -833.147907 4307.532120 252 255 254
99.931580 -258.587027 2052.507019 28 52 127
110.238194 -164.693129 2036.536598 104 125 147
-224.027514 -1177.410412 4536.358261 208 245 250
-135.332310 -799.927998 4108.074188 245 254 253
143.793571 -124.168789 1947.381210 49 42 97
-96.716148 -743.352556 4015.080261 130 156 172
116.632032 -257.034016 2229.279327 34 23 25
269.262457 164.631963 968.668270 77 26 12
151.004350 -149.281514 2011.515236 116 112 164
124.875736 -242.899132 2217.865753 24 12 12
-73.988169 -747.680235 4021.419144 42 33 36
188.471520 -12.755877 1741.737175 167 194 208
186.436057 -43.838421 1771.798325 61 64 68
190.955770 -36.971295 1766.580582 83 87 91
138.934934 -274.545097 2231.094170 39 34 35
181.389761 -102.584517 1892.665482 210 207 205
199.007988 -44.649038 1773.231316 79 79 81
178.907299 -134.176195 1946.125603 202 206 207
277.952743 149.538147 947.429848 77 26 12
257.741952 -271.204734 704.831076 147 154 155
-61.573523 -1169.708157 3878.815079 159 113 107
205.258918 -31.351840 1750.739670 155 163 170
217.291999 -12.502551 1655.299377 153 158 170
223.330712 -5.307946 1648.625946 107 104 126
149.837947 -319.491506 2445.048714 115 111 200
209.841490 -92.047364 1869.858170 251 245 248
223.954248 -37.101686 1754.886246 159 170 178
163.523495 -357.029462 2457.293129 146 147 218
166.507292 -339.862156 2451.978493 147 143 226
163.659990 -369.705868 2489.478302 32 26 79
227.458525 -81.169307 1860.416031 219 217 217
233.548188 -91.192901 1864.134026 86 94 98
184.250140 -343.437958 2435.462761 53 48 125
168.805611 -489.092493 2550.671768 97 91 166
263.214684 31.048536 1621.971893 75 90 103
260.604787 -15.737435 1636.892319 231 235 239
247.841597 -85.804981 1843.856812 70 49 45
205.047250 -387.735891 2427.118301 92 87 178
265.528107 -40.959004 1666.285896 204 201 205
197.799158 -466.505051 2586.387062 74 69 158
210.863566 -529.594898 2463.442612 109 102 177
289.951444 148.840427 817.719650 52 44 45
204.453731 -642.454338 2333.084106 187 194 202
216.525912 -520.738173 2404.233360 109 102 177
216.525912 -520.738173 2404.233360 109 102 177
228.846931 -420.048141 2403.652191 98 90 174
293.211174 35.618630 1595.153618 104 133 154
279.055882 -83.540571 1781.512260 184 147 111
279.055882 -83.540571 1781.512260 184 147 111
321.395302 -227.203751 753.127575 143 133 138
240.565014 -374.248099 2389.409637 111 108 195
282.193422 -85.197145 1784.566116 146 87 22
284.660411 -79.234636 1778.804588 194 155 110
286.880493 -59.906954 1778.354073 107 110 113
284.896708 -83.274490 1779.538918 151 84 18
299.277544 22.165482 1577.577019 89 117 142
251.921988 -409.539032 2343.208694 62 54 140
252.050257 -409.388494 2341.431999 62 54 140
254.364944 -403.379774 2373.854065 46 36 126
229.118872 -658.139706 2324.164391 112 106 109
300.269794 -60.844803 1777.638435 137 114 91
264.622760 -387.036657 2329.406929 43 31 120
307.649946 -24.270296 1694.748688 74 58 88
301.312685 -74.159533 1786.269188 128 93 71
310.799813 -3.520307 1660.762787 138 118 153
310.533786 -21.833505 1689.532852 120 103 136
314.146018 10.492032 1614.266014 147 143 172
256.181455 -534.680319 2441.932678 62 63 103
307.421851 -57.024395 1780.357933 84 53 16
311.114621 -28.763241 1692.278671 126 112 141
236.214709 -743.609285 2275.761795 125 125 124
274.312997 -414.477873 2329.468536 112 107 197
312.218690 -57.879722 1781.192017 76 44 9
310.457206 -73.329908 1799.682236 235 239 237
315.734100 -22.411254 1678.215218 57 44 68
308.007288 -102.896225 1787.882996 225 227 228
318.854165 -3.172730 1623.920059 150 129 168
312.849283 128.435290 847.296906 73 27 17
316.905403 -90.165383 1790.836334 109 68 15
315.388036 -102.400863 1793.749428 163 89 25
277.332759 -530.721569 2395.634270 115 126 144
323.663974 -67.787904 1805.309677 167 126 87
326.866794 -35.706687 1660.756302 163 187 204
325.287557 -100.108361 1852.292442 152 86 31
332.217407 -14.545102 1636.536598 85 81 111
318.409443 -252.827430 2235.442162 96 104 122
315.583539 -309.204698 2274.767303 79 76 148
332.635736 -80.587322 1786.197853 186 151 112
332.635736 -80.587322 1786.197853 186 151 112
217.410040 -1517.195606 3815.193176 92 84 77
439.011383 849.734879 1646.058273 158 159 168
309.165096 -482.401943 2326.476860 139 141 175
341.603470 -80.256099 1784.332466 170 132 95
347.715044 -31.771013 1731.212997 119 149 168
347.715044 -31.771013 1731.212997 119 149 168
342.350984 -111.524498 1855.661011 117 61 30
346.336913 -110.000634 1856.483459 222 202 174
332.803082 -347.451520 2264.564323 44 38 120
352.567434 -61.749142 1789.935493 140 166 182
332.251525 -429.008532 2300.140190 80 74 161
469.001627 1013.998318 1791.497231 98 100 108
358.587265 -105.513501 1816.402817 79 49 19
358.372092 -84.807163 1772.507668 133 119 107
325.682473 -653.747082 2249.597359 67 56 52
376.851964 47.025728 1600.178337 95 115 140
372.929931 -109.023499 1816.564560 205 155 106
375.165558 -106.558549 1814.240646 206 163 120
375.465727 -115.942323 1835.269165 196 147 103
375.163889 -124.287438 1830.137253 203 175 141
389.613509 -5.292762 1760.248947 157 190 209
383.442307 -89.485514 1795.349121 152 83 9
383.868456 -93.705302 1797.575569 202 149 107
394.475961 -86.113310 1803.237915 96 41 6
270.313883 -425.126362 -62.828052 136 144 150
409.596682 -55.290896 1763.178253 168 194 216
416.719389 -52.170807 1754.547501 55 77 103
345.182514 -31.102958 785.260963 34 33 33
475.850630 -1471.765232 3921.493912 108 107 103
538.566017 -1255.718327 4046.984482 93 115 132
601.780701 -921.196079 4103.174973 51 53 62
563.000631 -1245.335865 4122.530746 88 110 128
612.500238 -899.610996 4036.087036 129 136 145
624.571514 -821.213531 3985.067368 127 129 139
628.588104 -892.092514 4045.161819 26 29 40
650.975227 301.932812 2822.511482 171 181 188
639.536667 -897.354126 4021.160126 124 138 143
649.331951 -312.771583 3508.731079 72 31 12
653.656626 -809.408569 4028.742599 120 128 135
652.108192 -854.793453 4050.458908 17 16 20
618.126583 -297.819901 3095.396805 72 31 12
661.868811 -874.978733 3979.288483 97 90 100
591.501951 -1492.346573 3991.057968 116 117 115
389.633179 -32.297522 696.103048 71 75 86
627.594137 -1178.929043 3760.211945 96 119 135
801.760387 -1001.812744 4797.516251 93 97 102
497.158957 -5.775594 1632.623482 78 98 125
671.043301 -1247.691631 4011.820602 63 69 78
751.997089 -906.819725 4089.422607 62 59 68
815.106583 -516.071224 4149.205780 81 80 82
757.135201 -814.920235 3985.074615 119 131 137
778.291702 -847.104931 4048.331070 13 10 12
784.919786 -825.557423 4057.646942 20 19 28
805.186462 -839.591408 4093.248367 85 102 119
737.035036 396.216321 2585.149384 220 228 233
815.353489 -796.021748 3986.514664 98 105 114
858.263111 -508.103132 4013.076401 15 10 11
860.223770 -963.840103 4243.958282 37 40 44
952.219009 -593.051720 4289.771271 76 79 84
951.227093 -539.886093 4074.522781 87 90 95
1010.597229 -348.929334 3977.866364 27 27 27
932.670212 -1426.164436 4207.891464 43 45 45
913.493061 -1320.936584 3991.211700 41 43 43
913.493061 -1320.936584 3991.211700 41 43 43
826.612091 513.775206 2327.590370 119 126 135
1086.402225 -560.410547 4179.438019 28 30 30
1041.033840 -854.633904 3989.146423 41 38 47
1129.345322 -663.647461 4225.530624 81 83 84
1027.360821 -1025.844002 3866.221619 13 13 13
867.034054 562.468576 2202.936172 92 97 106
1104.667282 -1238.708591 4238.018036 84 62 54
1126.836109 -832.322216 3960.528946 117 114 119
1076.903248 -1213.704777 3965.516281 26 26 26
1076.903248 -1213.704777 3965.516281 26 26 26
18.960238 -796.308470 -544.159794 94 97 105
1158.633518 -772.313023 3861.994553 71 80 84
770.160961 417.580366 1605.742645 99 105 116
694.388103 -468.926144 132.383704 76 93 114
695.878458 -472.013044 123.139668 76 93 114
701.004887 -482.364225 91.642237 76 93 114
-2033.801651 -1308.107853 3843.857574 168 184 183
1090.267944 -786.769247 -497.164869 22 41 66
-2014.573097 -1250.522327 3921.547699 255 255 255
708.516216 -497.260427 46.409076 76 93 114
-791.922092 -218.144536 2231.601715 24 20 27
-564.588785 -79.255402 1912.380409 142 174 188
-558.199072 -86.877048 1907.976723 11 9 11
-553.315973 -84.235674 1916.138268 121 139 151
-551.712608 -80.874884 1914.119530 66 80 93
-716.996431 -192.986500 2163.827896 152 179 193
-716.996431 -192.986500 2163.827896 152 179 193
-548.102427 -79.111975 1916.344833 136 153 165
-544.584322 -85.305065 1919.898033 25 22 21
1776.637459 -513.852406 -1605.005836 185 190 185
-734.839296 -216.273141 2230.505943 138 158 175
145.998585 94.204962 1088.475037 212 210 211
-1435.828304 -1052.605152 3369.224930 202 207 209
566.009521 -254.178429 572.220898 125 118 111
3598.900986 -758.038044 -5772.713089 86 67 69
-719.608879 -790.092659 2438.697815 202 207 209
533.478308 -248.060012 612.925959 143 174 190
-140.610218 683.552647 1540.904522 235 237 236
11113.681793 4041.291046 -18572.230530 211 210 212
-18.776326 525.542116 1345.485592 212 212 212
-131.006896 671.789551 1528.788185 42 25 33
-14.196673 527.484608 1343.884850 208 208 208
-23.870574 516.675186 1362.327480 60 54 60
-23.870574 516.675186 1362.327480 60 54 60
-2593.711472 -2067.964745 6145.717621 255 255 255
-57.826340 612.339544 1470.552826 62 43 52
13.680901 424.931288 1350.516224 174 167 167
-37.616771 582.688046 1442.070103 42 25 33
-341.056824 -145.211720 2039.326668 24 22 18
40.504146 458.847618 1312.338257 210 210 210
-1429.276752 -1477.262688 4158.164215 255 255 255
-1429.276752 -1477.262688 4158.164215 255 255 255
21.939032 486.450481 1347.581005 221 220 219
35.766315 438.055801 1342.729187 42 25 33
46.342194 446.500540 1329.977226 218 219 217
40.679696 439.188766 1342.394161 235 237 236
45.203048 439.970303 1336.937046 62 47 52
45.203048 439.970303 1336.937046 62 47 52
-46.959203 44.831520 1583.066273 155 182 194
101.803482 404.012966 1260.638523 210 210 210
97.004092 463.434076 1308.819866 221 216 215
564.241266 -386.884093 232.518101 44 40 41
10.040956 -302.506518 1522.035694 252 182 139
-1666.392326 -1906.621361 5655.049133 225 228 229
74.222779 136.215210 1437.380219 23 22 25
555.765820 -236.406565 422.104406 81 79 74
553.100967 -235.342932 439.078045 196 203 219
551.757622 -235.693693 443.661833 196 203 219
53.210747 393.528795 1601.088715 16 12 14
550.131369 -236.114120 449.323750 196 203 219
548.406458 -236.541986 455.469608 196 203 219
547.368670 -236.798501 459.243727 196 203 219
-3838.829803 1733.942223 15202.366638 175 113 55
1616.266823 -1844.263077 -3805.353165 103 117 139
546.856070 -236.922693 461.129284 196 203 219
-35.025427 -632.656431 1721.193886 255 255 255
-181.786621 -134.960461 2373.022652 32 25 26
-115.539217 -160.264504 2154.662323 60 59 59
537.437344 -310.624266 88.424850 100 103 104
29.717344 -446.805906 1656.299782 233 248 254
-62.614340 -163.075483 2055.783463 60 59 59
-26.661798 -124.988127 1949.193954 146 151 149
-19.598578 -120.584309 1928.895378 33 20 24
-17.076987 -116.723061 1921.468163 144 144 144
6.791749 -95.899063 1885.555077 28 29 29
123.188472 49.147290 1545.652199 146 175 190
159.740353 419.221878 1544.406605 71 86 102
256.508613 31.772670 1184.509563 173 202 219
1.668945 -164.430678 1957.732201 187 185 185
32.936013 -138.207412 1870.591354 147 151 149
-64.524668 -249.513960 2187.753296 32 21 21
-762.275267 -1573.422718 4349.014282 255 255 255
-762.275267 -1573.422718 4349.014282 255 255 255
-760.248041 -845.464039 4557.712173 146 153 159
-760.031366 -834.836102 4573.871231 151 160 168
-726.377010 -825.421524 4519.179153 249 255 253
-739.459991 -925.034618 4536.766052 223 236 238
18.578602 -151.647127 1977.518845 32 25 26
201.575327 428.676891 1473.595428 74 76 71
64.669371 -111.607277 1925.024033 196 201 204
44.530588 -168.583333 2006.418991 164 156 149
-692.395592 1761.965561 6650.841522 103 117 139
374.805522 -225.037861 907.286549 128 148 150
77.719182 -201.803255 2062.358093 59 101 148
90.518850 -228.650880 2051.238823 10 6 26
92.638993 -247.315407 2038.954163 39 65 151
96.532106 -238.987017 2039.957428 34 67 155
96.638590 -238.978505 2039.702797 34 67 155
95.752823 -251.080298 2053.905678 72 98 182
-154.613292 925.806332 4228.420258 103 117 139
133.300900 -125.065708 1940.605927 25 24 88
109.576595 -275.096607 2040.770721 42 121 183
109.784424 -182.333601 2096.949577 87 29 20
114.581919 -179.487646 2100.181198 206 222 230
113.823688 -187.610185 2103.535652 194 210 216
235.526299 57.259572 1591.775322 157 190 205
156.613171 -137.558055 1964.644814 30 24 98
162.473774 -142.954421 1996.163750 190 189 198
182.811677 -117.017770 1920.535278 116 126 141
171.286166 -150.862002 2005.482483 192 194 195
213.295269 -101.203513 1864.452934 69 63 68
270.710659 25.270149 1611.060333 56 57 68
270.710659 25.270149 1611.060333 56 57 68
222.492337 -98.098654 1860.534096 251 249 252
242.751193 -89.635628 1850.412941 239 235 229
244.566584 -97.639674 1853.510666 200 202 201
248.339772 -86.491060 1839.039803 44 22 16
340.002561 735.564423 1910.147858 162 159 164
283.108640 245.745349 2256.577873 103 117 139
198.531556 -298.441339 2370.002365 35 25 100
-131.947982 -1564.098930 4398.821640 102 94 87
300.329971 -68.802685 1780.511856 115 59 4
311.292386 201.637053 2128.631973 103 117 139
309.865785 -70.706218 1806.517029 45 29 22
202.751207 -508.910084 2502.013588 36 26 92
228.652048 -407.259893 2399.499702 46 39 114
321.785331 -68.193954 1796.738243 94 62 39
400.319767 731.855536 1919.548225 53 43 43
400.319767 731.855536 1919.548225 53 43 43
403.369427 742.138720 1914.397621 52 67 41
234.248137 -481.420231 2430.720711 48 38 115
218.818736 -709.021759 2322.339630 185 193 186
263.427329 -318.918490 2331.719398 25 16 79
408.521032 719.997025 1920.010567 45 32 34
408.521032 719.997025 1920.010567 45 32 34
412.943935 739.336824 1914.036179 32 36 38
332.141066 -80.401713 1791.449547 187 150 114
370.878839 -22.453509 1344.735336 22 41 66
267.963076 -524.472761 2427.728462 39 30 73
355.843163 -64.722258 1804.735947 137 157 171
452.610159 715.290737 1973.299980 51 57 71
326.120377 -328.220034 2256.362724 89 87 169
457.886553 715.306377 1979.962540 157 160 166
453.187418 674.828005 1979.341888 58 70 82
401.920605 -168.951941 961.518955 57 77 98
458.491564 687.789345 1991.145897 172 178 183
334.577346 -321.606016 2257.884789 35 26 100
377.586269 -95.683646 1808.083534 209 170 132
377.586269 -95.683646 1808.083534 209 170 132
377.293921 -98.901653 1815.444183 134 65 0
333.460188 -346.428967 2267.587090 41 33 110
441.794491 68.255985 1703.631973 223 227 228
441.794491 68.255985 1703.631973 223 227 228
419.449663 -73.698872 1221.203423 22 41 66
519.118261 687.819958 2029.894257 124 125 129
424.490213 -79.019833 1208.339310 22 41 66
446.399450 23.441520 1621.659660 106 121 140
491.578293 29.670110 2481.148529 205 224 227
337.460732 -1440.941715 3813.216019 125 127 128
566.886902 755.117607 1902.235985 193 195 200
491.718197 21.320042 2489.373398 42 13 10
565.295124 183.462417 3121.480560 83 82 84
445.318031 -101.047933 1155.052948 22 41 66
481.779623 -12.006942 1478.651237 223 227 228
481.779623 -12.006942 1478.651237 223 227 228
594.446945 187.592423 3146.923828 89 104 113
594.608164 187.694097 3146.275330 89 104 113
504.044676 -984.544373 4145.502853 45 65 79
504.044676 -984.544373 4145.502853 45 65 79
430.677271 -329.025769 911.572838 197 225 226
506.881046 -1174.957657 4043.427277 29 27 27
570.731068 -1196.954250 4414.831924 24 33 53
560.523081 -291.473126 2668.683434 100 106 108
634.009457 -956.046486 4166.622162 21 23 24
634.009457 -956.046486 4166.622162 21 23 24
576.894760 -954.093838 3419.427872 24 33 53
702.381516 409.405899 2620.638466 219 228 231
616.279984 -1329.930305 4202.284241 30 30 31
613.891745 -127.697241 2518.908119 150 168 174
579.814720 -834.876633 2929.565048 24 33 53
728.218079 402.170467 2626.153564 135 145 152
580.657673 -801.531029 2792.935371 24 33 53
748.306036 -766.980410 4199.907684 88 104 110
735.693979 411.211777 2604.222298 122 128 139
735.693979 411.211777 2604.222298 122 128 139
826.274776 -488.316870 4397.153473 66 69 73
720.657682 -898.518944 3937.385559 25 23 28
581.901026 -750.438929 2582.966232 24 33 53
760.930347 -770.269728 4073.685837 19 29 47
823.922443 -584.844685 4365.462494 48 57 61
554.608727 -529.513931 1647.048569 25 26 36
471.215343 -333.908749 924.439907 170 171 169
839.800072 540.958452 2318.237305 91 98 107
844.331264 539.325380 2324.106598 196 200 205
902.160168 631.542873 2136.819458 180 188 193
910.154247 639.659309 2127.918243 180 187 193
912.076759 633.324766 2130.363464 98 108 115
913.939095 624.359417 2130.255318 184 191 195
526.042223 -323.840928 1071.456814 129 127 206
918.710613 633.564568 2127.695847 195 201 206
913.038063 -500.050211 569.781446 37 35 39
1255.838966 -351.008868 109.056389 146 162 178
-662.890768 706.742668 2041.982269 78 95 114
-635.981464 -130.845392 1958.700943 147 165 183
827.904701 -384.589386 733.662605 212 212 212
866.545296 -628.712893 462.024879 192 205 207
-425.472164 533.839273 1886.249924 78 95 114
-482.674074 -87.986171 1866.639709 65 90 106
-658.089828 -165.599608 2054.528999 130 154 170
794.104576 -369.317985 842.615032 77 75 74
792.509699 -368.863916 844.085503 77 75 74
-468.536997 -120.284760 1876.753044 69 71 78
-1968.229485 -899.318790 3416.794968 115 87 72
-467.316532 -127.247572 1885.721207 151 185 204
705.560923 -356.326151 923.095226 173 205 225
-493.151426 -148.382866 1989.393806 24 27 35
-495.939302 -156.913829 1993.833351 160 192 207
-491.993570 -154.337335 1997.442436 20 17 28
-2062.775230 -1321.314335 3877.730179 184 189 187
-2071.043015 -1326.409626 3898.056793 225 232 233
-2085.066795 -1294.365311 3921.597290 124 105 91
4174.772644 1023.823452 -3533.800125 113 90 79
4177.529526 1024.539661 -3537.843704 113 90 79
2899.888802 -270.778441 -2105.320740 96 86 78
-80.664068 282.940269 1660.958290 78 95 114
910.318947 -390.144062 526.311445 89 79 77
958.005810 -414.749384 269.302011 107 133 153
38.170868 -125.720203 1520.347691 168 197 216
-3397.371292 -773.945665 6091.124725 134 152 160
2196.784782 207.877493 -1458.517361 192 201 227
-359.077096 -326.175261 2068.671799 163 193 212
202.150655 -221.178007 1421.416759 173 205 225
2966.260147 477.285290 -2584.281349 190 195 225
5829.396057 1656.774521 -6777.704620 224 222 224
39.543819 -281.578541 1589.025688 202 191 187
5608.177948 1681.752396 -6677.880859 184 182 187
-1717.616272 -1211.354160 4153.121567 246 252 254
159.647119 36.551827 1500.841713 40 41 46
4390.797806 1860.400009 -5084.509277 176 165 161
-1678.583145 -1156.888103 4360.329437 244 246 246
4998.764038 1094.414139 -6374.137878 186 192 201
32.839191 -262.830901 1677.038383 130 160 177
33.980531 -275.730562 1683.891296 159 182 200
64.561242 -328.471136 1791.617584 21 21 21
622.452545 -395.031238 1055.814266 30 36 47
-634.835958 -571.684742 2823.733330 96 88 83
-1454.994297 -1390.373611 4100.703049 120 94 80
-1419.558620 -1359.746647 4102.165222 175 170 164
2635.066414 798.656082 -2694.956398 108 88 83
237.718058 51.018900 1451.663780 78 95 114
-202.090549 -765.950966 2061.962318 254 255 255
713.960934 -410.382080 884.551048 102 108 114
-1092.368126 -1304.037952 3633.927155 255 255 255
3841.317368 1375.922012 -4853.412628 255 255 255
712.765932 -408.468056 889.859295 102 108 114
714.468765 -408.033705 886.110020 102 108 114
712.802792 -405.135107 893.708038 102 108 114
-3066.423225 -2021.377182 7426.034546 184 182 187
213.143396 -268.148255 1487.739182 160 192 207
-83.544856 -238.223052 2153.769493 7 4 9
-81.133723 -235.731888 2157.030869 231 237 237
-77.815652 -240.385938 2159.529495 241 94 109
-71.691114 -239.513111 2162.137794 143 73 75
-302.137852 -568.291330 2747.037315 69 52 45
-156.153905 -431.731272 2572.730446 103 107 125
97.738016 -205.644703 2047.601509 49 96 141
321.468663 54.195410 1584.762192 64 85 107
101.078069 -183.472991 2056.093025 49 108 153
101.599836 -207.760072 2048.353767 41 19 30
103.165030 -175.698137 2059.314346 68 35 47
184.539509 -107.480454 1875.096130 155 122 126
104.200161 -199.126017 2051.185799 58 103 142
104.855800 -204.725409 2050.214958 61 28 38
306.554794 -12.495280 1600.455093 52 97 131
105.824697 -184.325886 2058.906937 47 85 137
106.116498 -180.867052 2061.993790 30 14 31
106.382358 -258.340693 2035.055161 42 117 184
108.691084 -188.670003 2058.999825 60 28 40
109.535563 -194.953942 2057.618332 84 24 18
111.335015 -190.193677 2062.256050 78 45 41
193.781948 -107.698977 1879.295731 225 216 217
111.561394 -242.221689 2045.904541 89 103 155
197.247207 -403.419590 1870.673752 92 76 70
327.379274 9.316204 1613.692284 130 148 167
165.244830 -156.734359 2002.924538 14 9 79
-83.494210 -408.627033 2610.997581 223 227 230
298.533893 -48.146340 1689.773560 141 159 176
-77.476239 -416.866922 2611.478043 173 179 187
237.194467 -96.979374 1849.732971 63 60 69
-740.122652 -935.139561 4318.938828 195 194 198
-72.338939 -434.417915 2626.885033 75 82 95
-500.927258 -590.673208 3879.710007 155 176 184
285.931396 -74.002075 1768.163872 121 61 1
295.378971 -69.754630 1770.471191 156 120 89
377.063584 -275.252485 1458.438969 19 21 21
323.568702 -56.183296 1782.903290 147 171 186
32.437816 -439.377785 2658.580971 172 184 197
344.806457 -80.719411 1791.788673 117 58 3
324.192953 -99.584860 1860.480881 147 70 2
323.129582 -102.089489 1863.932991 219 161 111
324.176884 -105.338705 1864.373589 117 49 1
327.203512 -104.082787 1865.382385 215 164 118
332.639718 -105.585301 1867.443657 122 66 8
333.307266 -107.340777 1869.099426 196 142 97
343.033171 -98.995614 1839.519501 140 102 69
-241.852236 -1375.987339 3322.428513 226 217 217
342.936587 -106.417751 1869.029617 115 72 42
637.068081 -307.975650 1250.385189 64 57 126
46.469226 2467.572594 6822.006989 212 216 221
370.772505 -107.637203 1833.963013 189 143 97
384.333777 -93.514991 1816.086197 149 81 18
388.099933 193.003452 1969.000244 112 114 115
209.576917 -398.787141 2433.677292 113 106 186
227.915454 -503.361273 2452.869606 29 22 83
628.231955 -296.435356 1329.046345 64 57 126
263.674974 -431.857538 2382.150078 97 91 162
314.967012 -370.220447 2316.270256 13 2 70
341.585660 -411.543751 2289.310455 11 2 67
282.713151 -761.892366 2289.663696 189 200 197
319.313335 -490.062857 2384.468269 37 37 101
669.545507 -411.086559 1087.688065 128 125 127
582.812023 361.808443 2651.125336 199 210 212
398.665929 -718.802977 2350.836563 38 20 22
273.015690 -833.223057 4014.451981 39 32 34
270.432329 -856.554890 4032.845306 61 41 15
523.096943 155.338717 3222.930908 119 130 137
530.723143 176.199055 3183.518219 205 217 217
527.157497 161.391556 3214.247131 98 108 115
527.049923 157.905281 3217.370605 139 150 158
527.049923 157.905281 3217.370605 139 150 158
535.726166 182.224345 3168.247604 208 217 220
532.139826 168.408799 3191.089249 65 67 77
287.021637 -832.873821 4008.559418 51 49 49
540.845442 188.354671 3151.360130 208 216 219
539.323759 178.689361 3167.353249 75 79 84
539.323759 178.689361 3167.353249 75 79 84
540.265846 176.573837 3176.677704 230 239 242
545.054531 183.940423 3156.293869 66 64 66
539.692450 164.967632 3220.109177 186 200 207
542.704248 171.380579 3202.722168 198 208 212
299.345469 -833.655167 4029.217529 41 32 30
555.901623 197.597599 3130.829620 109 119 125
555.901623 197.597599 3130.829620 109 119 125
543.809414 159.321046 3223.479462 117 129 136
620.492268 377.975774 2669.526100 212 217 218
550.068331 168.807757 3207.668304 89 99 103
305.440950 -868.400574 4040.807724 20 30 35
312.323523 -845.867634 4023.286819 118 125 124
312.323523 -845.867634 4023.286819 118 125 124
556.635618 172.346973 3199.857712 136 148 152
314.254522 -837.290096 4030.537796 57 42 44
325.024343 -828.760815 4030.973053 118 123 126
332.430530 -833.039761 4017.727280 35 34 36
573.530769 182.710505 3185.297966 164 171 173
334.565234 -841.971207 4047.154236 57 52 53
574.690533 167.880833 3195.714378 151 161 168
349.387693 -836.345005 4035.965729 31 27 29
374.525404 -765.356779 4083.460617 23 32 36
358.198881 -855.663681 4047.166443 90 81 71
358.198881 -855.663681 4047.166443 90 81 71
599.793434 -409.971714 1165.408611 77 75 74
369.341421 -840.818405 4030.861664 71 32 2
369.079781 -853.527927 4032.863617 71 28 2
371.511793 -865.824604 4044.316483 67 65 66
379.650855 -833.993340 4045.334625 97 93 85
720.543289 400.099707 2616.515160 215 221 221
726.446819 409.148407 2605.876350 212 216 217
732.982779 406.236219 2598.411179 113 114 123
738.795328 401.630306 2619.855309 132 138 143
738.795328 401.630306 2619.855309 132 138 143
653.211641 70.712221 1822.955513 206 206 206
797.284079 480.890512 2399.301720 79 81 90
645.699787 -355.957079 2076.770210 180 193 195
685.696030 -20.732559 1679.062462 206 206 206
629.475212 -396.585774 1257.376003 220 193 168
-151.385081 135.856664 1687.526894 72 84 92
-486.183071 -98.691791 1846.509743 5 7 14
-2560.656166 -1388.870335 2948.057747 33 33 31
-2560.656166 -1388.870335 2948.057747 33 33 31
-2013.470650 -618.794394 2705.891609 78 68 71
-2547.191811 -1375.966454 2953.967094 89 95 95
-1725.597191 -217.230344 2624.323082 59 27 26
-2474.616241 -1424.140930 2953.592300 29 27 27
-2477.807808 -1403.831863 2999.033737 82 82 82
-2466.860771 -1353.850269 3038.345146 37 40 35
-2472.509766 -1303.229809 3056.360626 65 67 68
838.855362 -536.316204 1202.864075 10 11 11
679.926014 -445.261335 1313.851929 208 206 202
-2375.134087 -1498.553181 3028.518677 71 80 98
-2352.240944 -1456.565571 3028.194618 33 33 32
-2417.581940 -1406.119633 3079.532242 39 38 41
-2411.664200 -1386.106491 3083.553886 38 47 57
-2415.594673 -1417.835617 3088.600349 47 46 48
-2403.472710 -1381.910133 3091.877747 86 95 105
-2399.596596 -1359.189987 3097.738266 48 47 47
-2493.231010 -1333.670616 3164.721680 58 61 66
-2382.289505 -1448.254681 3098.515320 99 121 132
-2386.773682 -1365.753746 3139.402008 50 48 47
-2339.631081 -1433.570766 3130.759048 95 109 119
-2305.853844 -1476.893902 3102.397346 95 111 120
4883.020020 -1317.450333 -1969.121933 67 67 67
-2296.890259 -1376.979828 3132.033348 86 96 109
-2352.002525 -1425.534439 3165.436935 47 47 47
-2265.795135 -1486.102676 3135.774040 45 45 46
-2259.434891 -1473.344326 3145.519066 43 49 51
-2238.874817 -1540.825653 3128.274345 94 108 114
-2256.026459 -1464.249706 3166.599083 51 47 46
-2234.696388 -1524.268818 3143.025589 68 71 88
-2246.824646 -1482.123184 3181.919861 60 59 65
-2217.569351 -1511.498070 3168.900299 49 46 45
-2235.281181 -1384.355736 3209.741974 61 61 61
-2316.944695 -1400.959778 3284.554672 69 67 67
-2316.944695 -1400.959778 3284.554672 69 67 67
-2223.885155 -1399.490547 3228.709412 59 58 58
-2187.892151 -1362.381077 3208.424759 69 67 67
-2174.550819 -1358.220005 3200.608063 69 67 67
-525.055170 -228.903317 2129.939842 18 21 29
-277.945614 -167.255008 1986.590767 7 19 19
257.429528 -477.728605 1581.061649 153 182 200
656.740093 -462.486982 1339.369392 126 131 143
-217.841959 -151.045775 1952.014732 234 235 233
35.068288 -19.419143 1787.912560 92 113 123
-346.140218 -323.732448 2064.112663 22 29 29
-284.133863 -182.203889 2042.498970 26 36 41
-337.899375 -309.274840 2065.674782 22 29 29
-1337.525654 -300.226021 2951.576805 114 140 148
762.601376 -468.234110 1302.458858 150 160 166
-1869.457054 -927.494240 3366.637039 213 214 206
297.838736 -307.067060 1562.790298 8 6 12
-361.324048 -241.840768 2196.706390 79 91 100
307.356024 -21.436371 1624.331665 65 93 122
280.149293 -33.289573 1654.956245 207 204 206
256.171751 -38.782683 1680.459785 122 97 128
24.447730 -149.038231 1910.014725 9 9 11
217.422795 -39.517084 1725.321198 174 175 185
569.129848 -486.213064 1446.559429 218 205 194
-190.958416 -228.397059 2114.963341 171 160 144
-1997.393036 -1351.550198 3701.893234 194 216 217
-186.584842 -231.449771 2121.485519 163 149 135
231.290913 -51.417542 1733.366776 241 236 238
51.307267 -122.356093 1915.810966 9 9 11
-495.082664 -346.737933 2452.678871 136 163 177
-173.238289 -241.062331 2140.215302 96 168 123
-176.320279 -245.788097 2145.502663 9 9 10
-169.927573 -239.313197 2145.163918 13 14 12
-168.582726 -243.968058 2145.305252 106 111 106
-2089.282417 -1281.186962 3998.953629 246 254 253
70.174283 -136.372948 1928.872299 91 101 115
205.527925 -67.218453 1810.169792 218 218 218
306.458139 -409.079790 1646.632576 46 56 66
44.985506 -171.199310 1980.853844 225 211 199
-1577.762032 -410.032034 3772.641754 118 132 133
81.693202 -142.972445 1983.322906 29 30 103
187.927246 -105.511963 1870.537376 225 203 206
83.215302 -147.137451 1987.184525 128 151 168
87.548435 -142.812812 1989.486694 23 16 26
-667.159367 -549.957418 2816.430283 164 144 136
-649.319124 -408.779430 2909.805679 95 112 121
-1380.496120 -949.068356 3682.727432 162 173 178
2822.746849 32.408026 -1391.342258 181 183 210
187.651956 -150.212419 1940.787888 185 179 186
-158.318448 -320.697498 2335.540771 21 18 25
99.749994 -180.497885 2055.831337 11 60 118
328.641772 -66.617453 1793.830299 84 38 1
102.914560 -187.070334 2055.761909 46 105 158
104.672384 -255.563068 2036.869240 17 39 102
165.709293 -152.473092 1994.874382 81 77 149
446.524429 -199.396777 1614.406013 126 131 143
113.123918 -194.923139 2066.732407 33 47 42
113.597918 -199.520051 2066.542816 155 154 164
112.367773 -214.378238 2064.710426 97 85 100
114.030075 -204.910111 2067.999840 87 42 48
-1782.978439 282.635427 4795.764923 212 229 231
-186.886084 -359.160256 2449.271202 18 16 7
367.399001 -500.767803 1865.297699 89 104 113
-180.011904 -533.321238 2504.660034 88 110 128
794.251108 -508.393717 1304.284000 196 198 199
-1723.902702 -1328.285503 4315.545273 246 253 254
358.568287 -499.830198 1883.009720 89 104 113
492.484665 -3.080405 1653.935242 170 198 215
624.514723 -518.138313 1394.100189 112 139 155
38.247094 -590.160322 2142.853355 183 203 211
-173.275089 -377.778172 2535.672951 62 74 85
861.954880 -536.531639 1221.229839 118 124 127
74.529183 -236.727619 2228.936005 105 121 141
166.709280 487.161160 2374.519157 138 132 133
-1384.525204 -890.471554 4254.509354 174 186 184
609.411621 -555.627871 1545.735931 51 15 15
-164.662242 -437.112236 2566.975975 47 53 72
-157.628679 -437.933683 2559.020233 47 53 72
-1397.774506 -826.046658 4375.427246 220 238 241
-311.086869 -462.352276 2809.094238 37 24 25
180.123889 479.211903 2397.629166 100 107 111
180.123889 479.211903 2397.629166 100 107 111
166.727567 470.076466 2443.144417 199 201 202
-292.318273 -480.894518 2812.219810 33 23 16
174.323821 469.735956 2438.815880 104 107 113
162.056279 -512.887621 2118.607521 248 246 242
-1310.004807 -833.684921 4421.052170 239 249 249
-433.413696 -485.478163 3110.619354 190 208 186
-887.661171 -1113.097477 3675.025940 193 193 196
-87.827116 -416.916609 2629.380226 204 206 208
-2341.469574 -1667.161942 6086.407089 196 184 187
76.730794 344.688797 2699.459648 93 104 108
132.486701 199.351239 2619.352341 186 197 201
144.460189 195.153141 2619.107246 173 189 191
46.497220 -282.377052 2596.605682 227 241 249
48.899522 -283.164358 2593.149185 227 241 249
-1788.926506 -1381.451130 5656.029892 172 165 171
-2153.787231 -1898.991966 6120.829010 207 209 210
-2169.693375 -1878.130150 6178.940964 191 192 220
-2169.693375 -1878.130150 6178.940964 191 192 220
348.854852 -661.315107 1904.312706 234 237 235
269.810796 -705.714941 2015.147972 185 171 169
306.805825 -841.236305 1878.671265 231 231 231
186.803746 -297.758818 2411.845589 37 27 103
606.313610 -533.279228 1454.254341 27 28 92
292.266226 -44.046521 2411.780548 41 31 73
410.325861 -778.150797 1785.153008 228 229 227
204.752612 -565.606880 2407.329750 136 166 177
446.278715 -747.554541 1732.442093 232 233 233
667.618608 -488.367033 1456.005096 2 3 4
319.057822 -336.542225 2313.982201 80 77 147
238.856387 -445.873547 2443.444061 92 84 145
327.460051 -770.834827 2043.763542 152 149 143
-824.137878 -1558.891582 4402.822495 164 174 172
532.065868 -629.998922 1669.930077 148 149 147
781.717634 -496.130991 1330.978870 169 195 212
520.327377 92.930526 2548.631477 187 195 195
315.681767 -789.340544 2507.715988 67 55 55
614.375591 427.567673 2597.510338 83 81 86
614.375591 427.567673 2597.510338 83 81 86
391.534400 172.908223 3173.746300 218 219 223
601.803637 377.919483 2667.507362 44 36 29
422.169447 -512.605906 2616.959000 100 89 81
437.704992 -519.828176 2618.642235 77 67 59
635.486746 -682.178831 1575.612831 226 226 226
438.182497 -534.486866 2636.274719 150 145 136
438.182497 -534.486866 2636.274719 150 145 136
701.529503 412.626982 2618.589401 119 117 126
640.528250 -678.272581 1572.140408 226 226 226
640.528250 -678.272581 1572.140408 226 226 226
738.025331 -456.507874 1500.975418 140 146 145
738.077927 -456.551123 1500.953293 140 146 145
820.907879 -348.151541 1598.246288 118 124 127
550.262117 189.041829 3143.645096 61 58 60
557.306671 196.499097 3125.757027 106 111 121
552.678633 182.908809 3145.807648 24 14 12
538.081264 164.820969 3203.866577 155 167 171
540.606451 168.434322 3196.964264 48 58 63
555.223703 176.595449 3175.975990 183 191 191
567.598152 188.479495 3137.549019 24 20 21
649.682140 -680.927753 1572.999382 228 229 227
558.487320 173.017669 3185.424995 156 165 168
560.720301 174.345315 3175.737953 55 56 58
729.103756 407.390308 2635.896111 210 215 218
729.696703 404.720020 2632.274246 210 215 218
521.383762 -485.558558 2511.650085 121 111 101
576.759863 184.344471 3170.503426 46 55 57
581.661463 190.846014 3157.105637 91 97 104
662.445116 -664.724684 1550.784779 232 233 233
660.609579 -672.803879 1553.559780 227 222 220
549.866581 -457.241917 2475.803185 61 49 37
724.788427 -490.016127 1614.569092 89 104 113
-3319.845963 151.932085 2677.416992 57 63 73
-3527.251053 -469.901752 2732.413483 38 41 95
-3594.591141 -407.073212 2769.773483 105 125 137
-3594.591141 -407.073212 2769.773483 105 125 137
-3597.487259 -457.529449 2773.908234 39 39 99
1348.374462 -570.462465 1181.204605 255 255 253
-2977.366257 254.038811 2686.067009 28 29 40
3946.687698 -1476.782990 196.453619 73 86 94
-3046.781349 -88.819146 2687.970734 92 107 116
-3566.862488 -484.641123 2810.945129 103 126 141
1378.715229 -952.730370 1174.922371 57 72 91
-2905.307579 28.958607 2691.733742 21 19 17
-2952.293968 187.746501 2781.851768 100 114 131
-2954.838562 199.521244 2804.504395 44 43 102
-2954.838562 199.521244 2804.504395 44 43 102
-3002.271461 172.244275 2838.850594 85 94 114
-2135.539436 463.457680 2576.769829 170 202 217
389.792943 -411.346292 1638.576317 36 35 41
-634.300995 -193.838453 2076.637459 11 10 29
1041.902065 -713.934326 1378.191566 196 200 204
-79.356039 -123.183453 1860.856438 10 5 6
3.349658 -114.541328 1832.072639 212 215 216
3.349658 -114.541328 1832.072639 212 215 216
-72.400653 -123.864996 1867.354393 186 191 190
-87.481970 -129.835749 1874.268532 131 138 137
-708.193493 -221.438766 2149.694061 167 200 220
-703.336620 -225.357723 2152.032471 39 43 61
-685.113287 -223.369718 2155.298233 180 199 212
-267.322063 -161.805201 1973.517609 11 12 15
-288.144088 -181.596589 1985.283470 132 165 185
-661.501217 -231.241012 2161.317253 194 227 246
-653.359461 -230.873942 2165.259743 183 219 241
-2722.925758 -1324.860954 2978.074646 118 145 155
-285.056233 -190.901744 2001.897049 147 178 192
2173.893166 -642.972851 680.233669 212 232 236
-2723.973465 -1382.507610 3004.593086 49 49 49
-462.331247 -201.191831 2099.226570 190 204 214
-2732.156563 -1302.406311 3034.047890 59 61 61
-2732.156563 -1302.406311 3034.047890 59 61 61
-2716.950226 -1411.086559 3004.497147 101 107 112
-2662.916946 -1422.460270 2993.221283 50 51 49
-367.131424 -538.635206 1995.965195 170 175 163
-2578.260994 -962.821007 3077.417374 137 158 166
-280.715561 -187.247407 2037.007713 23 34 42
-2644.518089 -1369.432545 3039.041710 44 45 43
-2644.518089 -1369.432545 3039.041710 44 45 43
-343.889308 -197.835708 2075.960732 120 149 170
-368.686891 -206.637216 2088.478851 134 169 187
-368.227124 -206.585073 2088.385201 134 169 187
